ncols 125
nrows 46
xllcorner -1620000
yllcorner 438000
cellsize 100
NODATA_value -9999
1358 1379 1403 1441 1458 1476 1524 1543 1558 1569 1589 1586 1585 1575 1579 1583 1579 1569 1591 1601 1597 1593 1602 1615 1648 1671 1688 1765 1787 1804 1841 1895 1914 1932 1967 1974 1977 1979 1970 1962 1949 1908 1901 1894 1884 1838 1823 1823 1818 1814 1815 1813 1800 1793 1778 1757 1755 1755 1763 1782 1773 1771 1825 1845 1874 1915 2015 2051 2060 2057 1978 1982 2017 2094 2132 2142 2094 2051 2019 1990 1927 1891 1870 1834 1811 1787 1748 1690 1665 1631 1538 1522 1472 1414 1348 1315 1289 1255 1183 1173 1189 1195 1188 1213 1242 1269 1284 1280 1339 1363 1358 1366 1223 1192 1154 1066 1017 975 959 895 865 841 785 769 751 
1349 1372 1414 1428 1444 1462 1494 1508 1522 1543 1547 1545 1556 1556 1561 1562 1562 1551 1568 1580 1574 1571 1583 1594 1633 1652 1666 1718 1745 1782 1813 1859 1882 1920 1952 1959 1966 1965 1962 1955 1943 1907 1897 1887 1878 1833 1826 1827 1834 1835 1836 1837 1840 1837 1842 1774 1765 1760 1767 1790 1791 1805 1862 1882 1919 1966 2057 2070 2074 2117 2138 2116 2078 2058 2061 2065 2078 2035 1995 1964 1910 1884 1872 1833 1803 1773 1741 1674 1636 1602 1515 1468 1418 1368 1290 1258 1232 1201 1192 1218 1258 1277 1271 1283 1349 1358 1360 1339 1403 1435 1422 1371 1328 1273 1215 1121 1091 1070 975 936 912 879 829 806 773 
1339 1363 1396 1411 1428 1444 1472 1489 1505 1528 1533 1530 1527 1524 1516 1514 1536 1534 1551 1562 1549 1554 1562 1598 1618 1636 1649 1697 1724 1763 1813 1840 1863 1885 1915 1923 1928 1944 1945 1944 1943 1917 1907 1901 1893 1853 1842 1835 1834 1840 1840 1849 1867 1878 1881 1832 1842 1854 1848 1830 1852 1852 1894 1924 1952 2008 2071 2076 2089 2173 2171 2118 2069 2012 2003 2005 2015 2000 1972 1933 1886 1869 1863 1815 1785 1760 1731 1657 1622 1590 1492 1449 1409 1356 1275 1248 1239 1313 1346 1408 1432 1450 1440 1372 1426 1435 1431 1402 1482 1507 1483 1419 1364 1296 1240 1169 1145 1105 1034 1006 988 956 882 839 836 
1314 1334 1367 1399 1413 1427 1456 1474 1491 1509 1514 1515 1516 1511 1499 1498 1523 1525 1518 1524 1503 1506 1520 1564 1605 1619 1629 1677 1714 1747 1798 1824 1847 1870 1897 1899 1910 1927 1935 1943 1948 1958 1961 1964 1989 1980 1887 1872 1861 1859 1852 1884 1905 1905 1901 1921 1903 1901 1856 1868 1906 1939 1930 1979 2028 2084 2096 2086 2117 2199 2178 2121 2044 2007 1972 1961 1985 1979 1955 1922 1863 1844 1819 1769 1745 1711 1683 1630 1611 1575 1474 1431 1386 1342 1268 1255 1274 1369 1423 1486 1514 1523 1521 1513 1561 1563 1555 1525 1584 1567 1520 1432 1368 1311 1263 1221 1187 1142 1058 1024 999 964 897 886 864 
1297 1316 1343 1359 1380 1400 1428 1440 1456 1493 1498 1500 1501 1494 1484 1482 1507 1509 1501 1508 1476 1472 1495 1544 1560 1574 1598 1660 1686 1717 1773 1809 1833 1854 1877 1885 1901 1926 1944 1959 1972 1997 2008 2024 2057 2040 2014 1985 1940 1934 1954 1960 1931 1917 1921 1966 1933 1920 1906 1946 1979 1957 1974 2024 2053 2089 2126 2176 2197 2185 2157 2124 2034 1998 1958 1937 1954 1951 1932 1867 1834 1817 1792 1750 1729 1698 1640 1607 1566 1521 1437 1399 1361 1305 1277 1280 1306 1404 1476 1553 1592 1585 1605 1603 1621 1629 1617 1626 1616 1562 1511 1447 1428 1389 1357 1300 1222 1176 1080 1037 999 966 930 916 886 
1277 1293 1321 1341 1364 1398 1411 1426 1442 1465 1467 1468 1452 1440 1438 1448 1492 1491 1484 1468 1447 1441 1471 1522 1530 1556 1614 1647 1677 1708 1761 1787 1806 1819 1855 1877 1895 1931 1950 1971 1983 2010 2030 2042 2059 2054 2043 2022 1972 1989 1995 1994 1985 1974 1978 1996 1998 1977 1954 1984 1985 1979 2027 2043 2052 2090 2141 2196 2188 2145 2119 2085 2015 1968 1925 1905 1871 1862 1856 1838 1805 1782 1766 1724 1697 1670 1611 1579 1537 1495 1422 1385 1342 1318 1325 1337 1365 1499 1571 1641 1715 1651 1683 1682 1684 1695 1674 1665 1609 1553 1510 1474 1467 1437 1363 1318 1263 1198 1076 1041 1021 999 955 936 911 
1252 1269 1310 1326 1349 1382 1396 1413 1430 1449 1451 1449 1435 1427 1415 1426 1451 1446 1439 1414 1401 1404 1454 1489 1507 1537 1603 1636 1668 1697 1746 1767 1793 1822 1842 1858 1877 1906 1918 1941 1971 1984 1993 2028 2046 2049 2048 2025 2011 2012 2020 2023 2022 2021 2022 2014 2011 2001 1998 2012 2031 2031 2040 2055 2048 2102 2160 2173 2153 2102 2079 2047 1980 1942 1908 1878 1837 1826 1817 1776 1753 1724 1699 1676 1645 1607 1581 1548 1506 1477 1408 1373 1328 1340 1355 1374 1403 1541 1610 1674 1773 1799 1812 1798 1826 1797 1745 1649 1601 1566 1531 1519 1500 1462 1373 1315 1246 1178 1088 1063 1051 1027 1010 988 960 
1211 1232 1282 1301 1321 1354 1371 1402 1415 1432 1433 1433 1427 1420 1402 1406 1431 1426 1415 1384 1374 1383 1416 1489 1519 1542 1593 1624 1657 1679 1731 1752 1778 1805 1821 1839 1855 1887 1903 1918 1949 1960 1967 1975 1996 2011 2027 2052 2052 2037 2049 2051 2051 2060 2050 2039 2031 2027 2041 2058 2056 2063 2081 2097 2111 2127 2122 2112 2053 2023 2032 2006 1947 1915 1880 1819 1800 1788 1778 1731 1712 1695 1650 1632 1608 1576 1521 1490 1458 1399 1362 1338 1333 1366 1390 1419 1447 1565 1649 1722 1840 1871 1865 1872 1839 1786 1728 1645 1620 1602 1592 1548 1497 1460 1353 1295 1229 1181 1121 1111 1110 1062 1036 1013 987 
1195 1246 1266 1286 1306 1331 1344 1359 1379 1386 1390 1393 1390 1402 1389 1400 1411 1409 1397 1357 1357 1394 1438 1499 1525 1542 1589 1620 1640 1661 1703 1725 1744 1773 1804 1818 1835 1866 1879 1893 1921 1930 1941 1955 1988 2004 2026 2062 2068 2083 2096 2099 2109 2109 2115 2071 2059 2052 2077 2092 2100 2125 2138 2141 2143 2116 2091 2077 2020 1992 1963 1941 1887 1848 1820 1761 1739 1754 1741 1700 1690 1670 1615 1582 1561 1541 1491 1461 1427 1366 1346 1358 1375 1421 1459 1497 1579 1628 1663 1758 1901 1938 1942 1894 1835 1780 1726 1668 1647 1632 1579 1534 1481 1431 1377 1353 1319 1230 1226 1178 1181 1114 1073 1033 951 
1179 1227 1252 1266 1278 1299 1308 1328 1352 1361 1363 1367 1375 1371 1358 1346 1348 1344 1328 1331 1357 1405 1457 1488 1512 1534 1582 1612 1634 1670 1686 1704 1724 1748 1765 1780 1799 1819 1836 1847 1900 1912 1931 1964 1984 2006 2029 2064 2075 2092 2116 2136 2145 2152 2160 2158 2166 2181 2216 2234 2229 2228 2227 2204 2178 2098 2061 2037 1982 1953 1928 1912 1871 1836 1793 1736 1721 1704 1679 1651 1630 1607 1550 1552 1515 1502 1453 1418 1387 1344 1355 1376 1402 1459 1492 1534 1621 1686 1742 1809 1956 2019 2009 1917 1845 1788 1744 1698 1684 1651 1559 1509 1474 1450 1407 1391 1355 1294 1290 1279 1246 1162 1111 1062 1029 
1134 1167 1187 1203 1240 1265 1278 1297 1325 1331 1334 1339 1353 1346 1338 1310 1315 1315 1297 1313 1358 1399 1454 1476 1498 1523 1571 1596 1615 1646 1665 1684 1701 1729 1744 1758 1778 1790 1800 1818 1864 1885 1910 1954 1983 2009 2027 2067 2079 2109 2176 2201 2195 2201 2208 2215 2244 2242 2247 2231 2208 2194 2187 2173 2108 2062 2015 1976 1955 1933 1910 1866 1858 1820 1770 1720 1706 1687 1643 1626 1599 1575 1517 1487 1454 1426 1379 1360 1351 1349 1359 1381 1415 1492 1525 1563 1659 1717 1786 1841 1979 2039 2016 1925 1867 1814 1785 1755 1705 1642 1543 1505 1491 1475 1421 1399 1383 1358 1344 1313 1264 1163 1104 1089 1063 
1110 1142 1167 1184 1195 1212 1226 1247 1262 1271 1304 1310 1319 1314 1308 1285 1278 1280 1269 1334 1377 1414 1456 1476 1491 1507 1543 1563 1579 1604 1618 1660 1672 1705 1720 1733 1755 1767 1771 1801 1850 1879 1907 1960 1990 2006 2019 2063 2088 2125 2242 2284 2301 2257 2280 2279 2251 2215 2209 2199 2180 2162 2157 2146 2092 2041 1993 1967 1937 1898 1864 1827 1799 1770 1756 1710 1689 1661 1631 1597 1572 1545 1482 1451 1418 1373 1357 1354 1356 1371 1389 1416 1488 1543 1590 1603 1718 1757 1814 1935 2015 2064 2026 1933 1874 1820 1759 1736 1687 1638 1593 1570 1541 1512 1464 1481 1463 1402 1372 1330 1277 1158 1138 1135 1097 
1088 1119 1142 1159 1179 1186 1204 1221 1235 1240 1243 1244 1239 1234 1236 1244 1249 1249 1292 1345 1381 1404 1435 1453 1470 1503 1530 1549 1565 1586 1597 1605 1627 1649 1669 1676 1697 1713 1749 1785 1841 1879 1914 1968 1986 2008 2030 2076 2109 2150 2277 2295 2283 2261 2229 2219 2197 2143 2136 2166 2153 2136 2129 2117 2062 2013 1966 1947 1910 1879 1842 1798 1773 1743 1724 1673 1651 1635 1583 1544 1540 1517 1454 1418 1389 1360 1363 1367 1373 1400 1422 1452 1534 1582 1642 1726 1820 1859 1891 1989 2061 2073 2033 1930 1882 1826 1743 1720 1690 1656 1644 1608 1564 1493 1510 1498 1457 1399 1382 1349 1244 1237 1244 1179 1143 
1020 1088 1111 1124 1146 1151 1173 1190 1204 1205 1211 1203 1197 1199 1205 1213 1207 1219 1293 1321 1341 1358 1380 1428 1446 1484 1511 1528 1539 1558 1565 1570 1605 1626 1643 1658 1713 1737 1766 1850 1883 1918 1945 1983 1980 2013 2065 2090 2128 2179 2282 2257 2236 2199 2177 2166 2155 2116 2111 2104 2101 2093 2083 2065 2017 1986 1940 1918 1889 1867 1839 1775 1753 1731 1705 1652 1636 1615 1549 1512 1488 1459 1399 1374 1371 1377 1373 1383 1391 1423 1460 1512 1630 1643 1704 1779 1885 1905 1937 2035 2084 2092 2049 1973 1927 1868 1833 1798 1723 1698 1669 1628 1578 1540 1553 1501 1463 1401 1382 1353 1292 1302 1295 1272 1234 
989 1018 1032 1042 1067 1083 1096 1149 1162 1169 1173 1165 1167 1168 1175 1177 1185 1216 1268 1290 1307 1327 1343 1357 1380 1434 1456 1472 1504 1534 1554 1574 1626 1640 1662 1689 1748 1768 1802 1893 1921 1936 1956 2011 2047 2089 2126 2152 2190 2227 2242 2208 2187 2160 2147 2139 2131 2093 2087 2075 2072 2071 2060 2045 2008 1948 1898 1881 1862 1824 1789 1755 1730 1705 1655 1632 1616 1595 1530 1487 1453 1401 1383 1381 1387 1395 1398 1414 1469 1504 1562 1624 1777 1744 1787 1926 1949 1962 1988 2075 2098 2092 2056 1984 1941 1899 1866 1804 1753 1730 1674 1633 1601 1615 1566 1514 1479 1413 1395 1368 1361 1365 1346 1331 1285 
985 989 1002 1010 1034 1050 1062 1065 1075 1079 1086 1097 1103 1111 1151 1161 1176 1199 1237 1254 1271 1294 1331 1366 1406 1457 1474 1510 1547 1604 1630 1653 1703 1727 1757 1738 1787 1808 1845 1916 1934 1943 1963 2023 2054 2080 2108 2138 2176 2214 2197 2169 2156 2125 2121 2105 2116 2070 2065 2050 2042 2039 2028 2016 1976 1921 1874 1847 1820 1788 1753 1704 1678 1649 1603 1587 1570 1577 1513 1470 1425 1399 1400 1397 1398 1426 1442 1466 1514 1552 1620 1677 1838 1888 1937 2056 2095 2124 2144 2116 2114 2088 2029 1996 1959 1945 1872 1808 1765 1714 1674 1647 1643 1660 1605 1554 1467 1451 1435 1452 1426 1418 1401 1361 1341 
1017 1018 1016 1015 1020 1026 1032 1040 1044 1050 1056 1073 1086 1099 1125 1132 1157 1190 1267 1303 1290 1342 1375 1413 1448 1491 1515 1554 1627 1655 1679 1705 1752 1784 1808 1830 1840 1851 1871 1902 1921 1940 2000 2020 2035 2063 2082 2117 2173 2223 2187 2160 2137 2114 2118 2077 2032 2023 2030 2021 1998 1990 2006 1987 1929 1889 1846 1797 1776 1746 1717 1668 1641 1613 1567 1547 1530 1517 1467 1443 1446 1455 1454 1471 1430 1467 1492 1525 1564 1596 1675 1735 1884 1947 1980 2102 2152 2189 2177 2108 2086 2070 2034 2012 1992 1964 1879 1821 1788 1727 1695 1690 1706 1695 1635 1586 1508 1493 1494 1533 1551 1548 1557 1500 1459 
1127 1119 1111 1111 1117 1063 1063 1069 1070 1076 1079 1065 1070 1083 1111 1123 1147 1176 1257 1313 1369 1457 1489 1526 1546 1572 1547 1577 1658 1693 1722 1749 1789 1806 1815 1834 1844 1858 1875 1901 1928 1937 1985 2015 2034 2047 2065 2107 2176 2211 2173 2149 2126 2089 2092 2060 2015 2018 2021 2011 1982 1971 1957 1903 1855 1831 1813 1720 1686 1706 1655 1631 1608 1583 1534 1515 1499 1482 1474 1464 1467 1482 1487 1517 1556 1596 1609 1657 1710 1735 1729 1791 1935 2005 2045 2142 2196 2195 2152 2103 2091 2080 2045 2018 1994 1970 1903 1888 1850 1793 1780 1748 1795 1711 1660 1612 1554 1543 1569 1624 1613 1621 1625 1591 1536 
1183 1178 1170 1177 1168 1168 1171 1162 1162 1159 1157 1107 1101 1096 1097 1112 1133 1158 1247 1311 1373 1476 1516 1538 1556 1591 1612 1639 1717 1750 1774 1793 1818 1830 1836 1844 1853 1865 1881 1906 1931 1936 1980 2025 2042 2044 2056 2095 2141 2186 2161 2136 2122 2071 2055 2044 2025 2012 2010 2001 1967 1953 1939 1873 1821 1790 1763 1677 1648 1628 1590 1567 1539 1520 1493 1493 1486 1504 1504 1494 1492 1515 1528 1573 1691 1674 1687 1736 1801 1828 1895 2004 2061 2119 2164 2200 2201 2171 2113 2100 2092 2083 2069 2047 2009 1937 1899 1879 1863 1856 1866 1872 1809 1747 1709 1680 1648 1599 1651 1712 1674 1685 1698 1659 1614 
1230 1224 1223 1221 1217 1223 1219 1215 1216 1210 1209 1214 1209 1200 1179 1159 1134 1184 1236 1292 1348 1457 1504 1531 1564 1586 1614 1640 1710 1748 1769 1802 1815 1827 1837 1854 1866 1874 1896 1915 1930 1936 1972 2013 2033 2042 2060 2093 2138 2190 2167 2143 2128 2084 2068 2051 1988 1973 1977 1969 1955 1955 1946 1862 1795 1756 1718 1634 1606 1582 1543 1527 1515 1510 1507 1515 1526 1559 1568 1561 1567 1551 1582 1662 1787 1777 1760 1800 1893 1906 1980 2087 2131 2178 2216 2188 2158 2133 2106 2106 2109 2109 2063 2059 2042 1943 1905 1892 1897 1944 1958 1942 1823 1769 1739 1733 1731 1785 1843 1867 1838 1841 1861 1760 1674 
1286 1282 1259 1254 1254 1260 1256 1255 1259 1254 1261 1261 1253 1246 1236 1216 1191 1148 1194 1238 1280 1380 1426 1512 1536 1559 1591 1621 1693 1731 1752 1787 1801 1817 1831 1844 1856 1868 1891 1907 1919 1930 1971 1997 2010 2036 2056 2097 2153 2206 2172 2150 2123 2115 2092 2067 1974 1971 1971 1953 1952 1937 1915 1873 1822 1740 1644 1605 1574 1551 1524 1527 1531 1533 1543 1545 1560 1601 1612 1616 1630 1716 1798 1869 1973 1929 1883 1882 1994 1978 1997 2129 2184 2224 2197 2156 2145 2134 2109 2106 2108 2102 2096 2083 2054 2008 2000 1998 1957 2045 2033 1992 1866 1807 1783 1796 1822 1881 1936 1965 1971 1978 1920 1764 1696 
1309 1308 1305 1313 1323 1331 1336 1331 1297 1295 1300 1297 1299 1300 1292 1270 1247 1168 1174 1213 1253 1340 1377 1413 1471 1496 1532 1574 1653 1702 1735 1773 1788 1803 1819 1820 1837 1852 1885 1902 1912 1925 1982 2001 2011 2048 2075 2125 2192 2217 2216 2171 2147 2138 2106 2074 1991 1979 1977 1947 1932 1918 1899 1857 1836 1772 1642 1602 1577 1558 1544 1559 1554 1569 1580 1583 1601 1650 1658 1680 1797 1883 1939 1998 2048 1992 1942 2091 2145 2126 2114 2203 2243 2215 2154 2138 2131 2125 2109 2101 2100 2120 2127 2133 2107 2075 2085 2091 2099 2120 2098 2058 1997 1984 1943 1869 1906 1963 2040 2094 2055 2007 1937 1795 1741 
1335 1333 1332 1348 1361 1366 1373 1369 1371 1368 1369 1376 1380 1385 1336 1330 1303 1225 1198 1195 1263 1298 1336 1374 1444 1473 1518 1568 1635 1665 1700 1733 1751 1768 1771 1787 1818 1835 1876 1894 1905 1923 1996 2017 2029 2076 2116 2168 2210 2217 2212 2207 2171 2139 2110 2083 2030 1996 1982 1952 1926 1903 1874 1842 1826 1800 1654 1621 1604 1587 1570 1588 1609 1660 1701 1736 1751 1780 1727 1775 1932 2000 2081 2133 2114 2060 2015 2129 2183 2203 2188 2264 2264 2219 2172 2149 2137 2129 2093 2086 2079 2109 2109 2108 2112 2125 2129 2125 2092 2089 2096 2105 2079 2057 2010 2021 2030 2041 2068 2060 2025 2012 1933 1869 1830 
1359 1358 1360 1379 1388 1394 1403 1402 1401 1402 1404 1410 1414 1420 1418 1411 1397 1350 1322 1292 1245 1270 1314 1352 1418 1440 1497 1586 1616 1648 1675 1711 1729 1746 1755 1773 1785 1802 1831 1855 1885 1943 1995 2019 2039 2104 2141 2173 2209 2205 2205 2216 2225 2181 2151 2093 2057 2023 1995 1959 1937 1899 1873 1835 1821 1796 1700 1669 1658 1642 1634 1641 1644 1705 1763 1808 1843 1918 1986 2028 2114 2163 2233 2297 2168 2120 2091 2189 2244 2266 2254 2308 2268 2224 2185 2164 2141 2118 2082 2055 2047 2032 2045 2048 2050 2050 2108 2115 2076 2065 2068 2092 2135 2095 2063 2024 2013 2017 2021 2031 2007 1973 1936 1909 1893 
1398 1403 1409 1423 1432 1418 1431 1436 1436 1433 1432 1444 1453 1464 1461 1456 1445 1414 1387 1359 1314 1295 1286 1306 1366 1397 1442 1557 1592 1623 1655 1691 1701 1715 1745 1753 1770 1787 1812 1844 1882 1927 1955 1984 2017 2089 2120 2146 2197 2192 2200 2227 2306 2248 2193 2133 2094 2053 2025 1960 1935 1899 1856 1862 1868 1871 1887 1875 1858 1760 1735 1693 1682 1727 1785 1851 1972 2033 2078 2098 2139 2200 2279 2338 2281 2240 2229 2246 2225 2227 2231 2312 2271 2230 2185 2171 2146 2105 2069 2045 2030 2004 2000 1996 1997 1999 1999 2016 2059 2053 2033 2029 2123 2097 2060 1998 1986 1981 1976 1996 1985 1954 1915 1890 1867 
1412 1419 1440 1449 1458 1465 1480 1486 1493 1501 1517 1536 1498 1521 1511 1500 1491 1462 1437 1412 1369 1364 1344 1317 1335 1373 1413 1504 1541 1572 1602 1637 1654 1694 1727 1733 1746 1766 1802 1838 1872 1913 1935 1966 2004 2074 2106 2128 2159 2176 2186 2231 2359 2331 2227 2163 2126 2078 2041 1966 1934 1899 1869 1879 1901 1911 1909 1881 1857 1838 1833 1827 1810 1827 1858 1862 2032 2110 2148 2189 2207 2246 2318 2331 2312 2293 2277 2232 2207 2194 2195 2207 2226 2251 2185 2161 2141 2093 2065 2034 2020 1988 1983 1974 1937 1935 1945 1959 1988 2009 2009 2014 2027 2028 2002 1947 1921 1904 1936 1954 1950 1928 1887 1869 1842 
1429 1439 1461 1474 1482 1488 1507 1513 1523 1549 1563 1582 1600 1601 1591 1586 1575 1557 1487 1459 1421 1414 1390 1338 1324 1350 1391 1477 1512 1543 1588 1602 1628 1651 1669 1681 1688 1721 1753 1817 1848 1896 1919 1944 1987 2049 2079 2093 2124 2156 2187 2239 2348 2324 2272 2180 2140 2116 2096 2026 1952 1927 1898 1908 1929 1933 1912 1885 1883 1895 1921 1886 1856 1872 1904 1921 2065 2129 2211 2298 2289 2284 2332 2303 2294 2278 2263 2226 2204 2178 2155 2163 2181 2218 2195 2164 2143 2085 2062 2032 2000 1969 1948 1959 1911 1902 1911 1911 1933 1945 1965 1971 1969 1959 1943 1916 1881 1861 1823 1849 1861 1850 1821 1807 1817 
1460 1474 1502 1496 1508 1513 1538 1547 1562 1590 1605 1624 1634 1633 1625 1630 1614 1599 1569 1543 1494 1481 1461 1410 1355 1358 1374 1446 1479 1512 1548 1567 1594 1617 1635 1648 1658 1695 1726 1756 1782 1856 1877 1896 1968 2024 2041 2050 2096 2138 2181 2291 2327 2300 2249 2193 2168 2143 2092 2051 2020 1989 1962 1972 1970 1959 1956 1919 1923 1976 2025 1973 1881 1895 1934 1969 2077 2146 2238 2298 2266 2255 2262 2259 2250 2233 2218 2210 2196 2170 2140 2143 2158 2180 2201 2177 2153 2085 2058 2028 1999 1948 1931 1909 1895 1878 1868 1862 1851 1900 1913 1918 1907 1895 1889 1883 1851 1821 1774 1786 1810 1802 1783 1766 1751 
1472 1489 1521 1537 1553 1571 1604 1621 1637 1623 1639 1658 1668 1670 1664 1661 1649 1630 1599 1573 1529 1520 1503 1460 1456 1459 1457 1417 1419 1448 1514 1537 1552 1575 1604 1614 1642 1685 1711 1740 1762 1826 1850 1863 1928 1946 1950 1968 2036 2069 2111 2272 2309 2302 2246 2196 2175 2155 2098 2055 2021 2004 1980 1985 1988 1976 1988 2011 2053 2144 2102 2065 1985 1920 1959 2010 2111 2194 2287 2268 2259 2240 2240 2240 2222 2210 2212 2206 2197 2180 2134 2114 2114 2148 2194 2179 2158 2100 2067 2037 1953 1936 1923 1902 1862 1850 1832 1823 1811 1803 1807 1812 1801 1796 1787 1827 1833 1788 1728 1729 1753 1756 1739 1723 1709 
1488 1505 1542 1560 1580 1618 1637 1656 1674 1706 1713 1726 1734 1734 1738 1703 1668 1646 1623 1587 1574 1557 1544 1533 1530 1523 1479 1450 1428 1427 1459 1473 1487 1506 1555 1602 1649 1713 1729 1747 1757 1799 1822 1840 1906 1926 1929 1941 2014 2056 2104 2188 2256 2282 2262 2189 2168 2145 2099 2054 2027 2021 1998 2000 2003 2007 2036 2080 2130 2181 2122 2084 2016 2001 2037 2099 2237 2267 2267 2249 2248 2235 2234 2214 2204 2203 2218 2209 2201 2185 2142 2113 2095 2124 2158 2163 2148 2104 2079 2042 1955 1923 1914 1896 1841 1824 1814 1812 1802 1787 1777 1782 1774 1761 1730 1715 1715 1725 1657 1631 1620 1652 1691 1677 1656 
1501 1520 1559 1581 1605 1648 1670 1689 1705 1727 1737 1743 1747 1749 1753 1752 1722 1710 1704 1691 1687 1609 1601 1598 1585 1563 1515 1483 1462 1451 1456 1485 1508 1527 1557 1600 1656 1742 1760 1768 1792 1807 1826 1838 1893 1918 1914 1989 2024 2074 2113 2162 2215 2261 2228 2202 2176 2147 2104 2087 2090 2076 2059 2056 2027 2055 2105 2160 2197 2210 2158 2119 2038 2034 2066 2136 2264 2243 2238 2234 2245 2231 2201 2169 2176 2202 2216 2212 2197 2182 2148 2126 2090 2098 2125 2159 2147 2104 2087 2048 1978 1941 1918 1896 1827 1810 1821 1809 1792 1775 1760 1755 1749 1741 1701 1676 1663 1667 1627 1583 1568 1596 1590 1564 1510 
1519 1539 1586 1610 1637 1688 1697 1714 1725 1747 1757 1760 1760 1761 1765 1768 1757 1761 1739 1729 1729 1730 1724 1677 1643 1621 1581 1524 1503 1488 1497 1519 1548 1557 1572 1614 1670 1746 1766 1774 1791 1813 1834 1857 1875 1893 1919 2022 2060 2092 2123 2152 2198 2243 2230 2206 2185 2157 2107 2105 2104 2111 2107 2099 2105 2153 2223 2301 2238 2192 2180 2148 2065 2076 2099 2252 2241 2219 2215 2236 2249 2238 2176 2155 2169 2185 2185 2183 2172 2158 2148 2136 2100 2072 2093 2136 2148 2097 2090 2063 1980 1942 1913 1893 1825 1807 1796 1781 1789 1765 1738 1705 1698 1734 1678 1645 1623 1617 1602 1557 1520 1525 1519 1504 1460 
1527 1572 1594 1619 1650 1698 1721 1741 1768 1782 1793 1800 1778 1779 1780 1784 1783 1784 1776 1770 1775 1769 1752 1712 1680 1665 1631 1628 1616 1601 1619 1624 1631 1635 1607 1640 1688 1756 1776 1781 1807 1822 1842 1874 1896 1915 1947 2039 2088 2145 2167 2189 2206 2198 2176 2189 2179 2166 2128 2132 2138 2150 2151 2155 2162 2250 2308 2318 2230 2197 2184 2159 2148 2180 2202 2183 2209 2200 2196 2231 2238 2229 2160 2138 2154 2169 2163 2166 2159 2155 2147 2125 2087 2025 2048 2093 2114 2092 2090 2068 1986 1945 1911 1852 1822 1801 1780 1734 1735 1728 1686 1657 1646 1646 1657 1630 1593 1547 1528 1544 1486 1468 1453 1442 1417 
1533 1579 1602 1628 1661 1701 1723 1745 1779 1795 1806 1817 1820 1814 1810 1819 1824 1829 1840 1824 1824 1802 1766 1750 1733 1717 1695 1685 1672 1658 1668 1674 1681 1683 1699 1725 1787 1792 1795 1800 1818 1840 1861 1912 1921 1943 1977 2077 2145 2189 2193 2213 2187 2170 2155 2161 2192 2226 2212 2207 2207 2182 2202 2220 2226 2350 2344 2309 2240 2218 2202 2190 2207 2209 2186 2163 2165 2156 2173 2206 2208 2195 2160 2135 2132 2147 2138 2148 2151 2149 2134 2100 2061 2013 2035 2074 2122 2081 2072 2063 2001 1961 1926 1869 1828 1798 1768 1703 1671 1654 1617 1596 1588 1588 1594 1605 1598 1541 1506 1474 1433 1341 1334 1335 1287 
1539 1585 1606 1632 1659 1699 1722 1746 1786 1802 1815 1830 1847 1849 1843 1835 1842 1855 1875 1883 1865 1843 1809 1797 1784 1767 1758 1749 1735 1712 1711 1717 1719 1727 1752 1779 1818 1815 1820 1831 1859 1884 1917 1946 1947 1970 1996 2112 2177 2168 2161 2163 2156 2149 2143 2161 2196 2274 2264 2261 2271 2290 2318 2334 2301 2288 2274 2280 2234 2222 2204 2181 2179 2171 2155 2142 2133 2130 2156 2187 2201 2186 2151 2124 2096 2104 2102 2111 2122 2141 2114 2077 2033 2011 2023 2053 2116 2067 2044 2033 2010 1984 1946 1884 1843 1809 1780 1696 1648 1604 1571 1543 1528 1526 1526 1544 1555 1542 1512 1484 1446 1330 1280 1270 1255 
1540 1580 1601 1623 1648 1700 1719 1742 1778 1796 1818 1832 1856 1864 1869 1867 1870 1884 1903 1885 1867 1851 1815 1800 1796 1804 1828 1818 1807 1758 1745 1734 1734 1763 1797 1826 1844 1841 1844 1851 1874 1900 1936 1957 1960 1982 2037 2125 2110 2096 2080 2085 2121 2125 2140 2160 2182 2277 2277 2291 2313 2371 2366 2328 2266 2253 2240 2225 2210 2202 2192 2164 2151 2139 2137 2121 2103 2109 2150 2171 2180 2166 2145 2117 2087 2082 2085 2093 2106 2108 2076 2017 1984 2004 2017 2023 2095 2054 2023 1995 1983 1981 1973 1906 1868 1830 1751 1707 1652 1608 1531 1493 1456 1427 1415 1422 1490 1530 1522 1484 1449 1344 1283 1230 1205 
1538 1575 1596 1617 1670 1691 1712 1736 1774 1791 1811 1842 1856 1865 1885 1911 1909 1920 1914 1894 1870 1853 1827 1816 1810 1827 1839 1836 1822 1794 1775 1768 1785 1815 1854 1871 1879 1858 1859 1861 1880 1907 1946 1968 1979 2010 2070 2092 2078 2061 2052 2051 2068 2087 2142 2146 2168 2229 2270 2298 2318 2358 2327 2299 2242 2225 2212 2205 2195 2193 2188 2157 2134 2126 2126 2095 2078 2078 2093 2110 2147 2140 2134 2110 2083 2062 2068 2077 2091 2087 2021 1968 1963 1975 1989 1999 2024 2027 1987 1930 1914 1952 1964 1925 1890 1851 1749 1708 1663 1616 1530 1495 1454 1383 1373 1370 1374 1383 1410 1435 1351 1308 1276 1221 1151 
1531 1573 1592 1610 1664 1679 1702 1727 1767 1786 1806 1837 1850 1861 1881 1916 1932 1942 1952 1941 1923 1908 1861 1840 1829 1835 1848 1848 1835 1812 1793 1784 1803 1837 1874 1887 1889 1890 1886 1890 1902 1938 1969 1982 2008 2056 2094 2071 2053 2040 2036 2033 2070 2106 2132 2146 2173 2200 2213 2270 2343 2301 2271 2263 2251 2208 2188 2190 2194 2192 2182 2138 2115 2105 2111 2095 2077 2073 2071 2080 2078 2079 2086 2083 2062 2042 2049 2058 2065 2055 1980 1927 1913 1919 1943 1972 1983 2003 1952 1875 1864 1863 1874 1859 1851 1810 1736 1708 1668 1623 1534 1494 1457 1378 1349 1336 1329 1332 1334 1340 1310 1270 1222 1168 1074 
1524 1559 1572 1591 1636 1659 1691 1720 1755 1777 1794 1826 1840 1856 1874 1915 1931 1943 1970 1974 1954 1920 1921 1901 1884 1868 1874 1868 1839 1823 1823 1821 1839 1878 1895 1898 1904 1902 1895 1905 1924 1960 1983 2040 2088 2114 2070 2058 2052 2033 2024 2028 2059 2092 2122 2145 2180 2183 2196 2251 2333 2286 2252 2251 2240 2213 2181 2184 2187 2183 2189 2135 2121 2106 2096 2096 2077 2061 2056 2063 2062 2061 2055 2050 2045 2052 2032 2023 2001 1963 1923 1892 1872 1864 1898 1938 1940 1952 1930 1832 1806 1811 1811 1789 1803 1767 1688 1670 1643 1617 1539 1495 1447 1375 1349 1318 1298 1292 1293 1294 1270 1223 1177 1129 1050 
1532 1546 1563 1584 1622 1651 1682 1729 1749 1763 1773 1808 1823 1850 1885 1910 1926 1942 1977 1992 1987 1949 1935 1928 1915 1884 1887 1899 1901 1875 1876 1882 1953 1962 1919 1917 1914 1913 1908 1922 1957 1988 2011 2081 2122 2103 2066 2054 2046 2034 2004 1989 2000 2060 2088 2116 2174 2180 2189 2246 2311 2273 2236 2232 2213 2187 2175 2172 2177 2177 2176 2142 2130 2109 2076 2067 2046 2056 2059 2066 2058 2047 2035 2027 2028 2039 2013 1984 1921 1904 1894 1874 1811 1789 1801 1836 1849 1841 1867 1783 1753 1747 1737 1714 1750 1726 1630 1622 1601 1556 1522 1483 1445 1377 1347 1321 1281 1261 1241 1227 1235 1187 1139 1052 1028 
1516 1533 1555 1575 1616 1639 1668 1715 1737 1749 1764 1796 1813 1830 1870 1898 1922 1934 1977 1991 2002 1957 1951 1948 1941 1906 1903 1919 1936 1927 1917 1919 1990 1990 2007 1975 1956 1958 1966 2007 2021 2022 2050 2080 2100 2085 2064 2049 2038 2012 2000 1986 1984 2040 2070 2119 2133 2178 2227 2262 2317 2264 2232 2221 2190 2184 2168 2161 2165 2163 2156 2134 2131 2110 2061 2045 2037 2034 2057 2053 2044 2033 2028 2021 2022 2011 1979 1948 1879 1864 1864 1854 1795 1768 1762 1779 1798 1795 1785 1716 1683 1657 1614 1603 1605 1670 1571 1571 1567 1523 1491 1461 1433 1370 1341 1320 1283 1265 1245 1213 1143 1124 1092 1009 1003 
1492 1503 1524 1549 1605 1627 1655 1705 1723 1733 1746 1785 1804 1821 1868 1895 1919 1934 1977 1990 2010 2011 2003 2005 2014 1954 1940 1951 1990 1982 1982 1993 2020 2023 2025 1996 1990 1988 1995 2015 2014 2002 1997 2004 2001 2001 2030 2039 2026 1995 1992 1985 1978 2018 2058 2117 2123 2180 2229 2263 2294 2241 2203 2158 2152 2145 2137 2132 2151 2150 2123 2122 2126 2108 2058 2036 2031 2041 2050 2043 2039 2017 2020 2016 2007 1977 1912 1884 1833 1824 1811 1815 1782 1759 1741 1735 1750 1760 1753 1693 1662 1634 1574 1559 1546 1552 1478 1474 1497 1459 1431 1429 1408 1354 1327 1303 1273 1256 1231 1198 1141 1104 1075 1010 1027 
1479 1495 1512 1551 1580 1603 1626 1674 1695 1704 1732 1776 1795 1816 1865 1888 1912 1934 1971 1987 2008 2039 2028 2020 2027 2011 2004 2023 2108 2106 2088 2073 2041 2045 2035 2007 2001 2006 2011 2008 2000 1986 1966 1967 1966 1966 1988 1980 1960 1930 1944 1962 1969 2004 2048 2114 2141 2188 2226 2260 2245 2201 2169 2141 2139 2131 2120 2111 2133 2133 2103 2103 2107 2088 2039 2022 2013 2025 2031 2036 2037 2013 2008 2000 1986 1982 1917 1877 1808 1777 1758 1724 1736 1745 1728 1676 1710 1732 1710 1680 1650 1625 1556 1525 1506 1483 1448 1417 1447 1418 1397 1372 1313 1288 1262 1242 1200 1226 1200 1178 1142 1111 1078 1025 1049 
1463 1480 1499 1531 1560 1587 1614 1657 1677 1690 1732 1750 1774 1800 1844 1866 1891 1949 1968 1984 2005 2049 2051 2036 2047 2024 2026 2060 2123 2111 2095 2070 2060 2051 2041 2034 2022 2025 2025 2001 1987 1971 1944 1938 1934 1929 1927 1924 1905 1886 1905 1936 1952 2026 2109 2173 2203 2234 2246 2255 2198 2165 2145 2136 2130 2118 2105 2090 2110 2108 2094 2098 2098 2079 1991 1978 1984 1996 1980 2010 2039 2020 2002 2000 1969 1972 1941 1878 1790 1766 1746 1703 1697 1717 1713 1663 1645 1661 1658 1634 1618 1602 1549 1511 1477 1432 1407 1366 1391 1370 1352 1333 1281 1254 1226 1202 1157 1141 1125 1091 1081 1063 1044 1032 1070 
1437 1464 1484 1516 1543 1574 1598 1636 1658 1679 1716 1738 1765 1794 1838 1860 1887 1937 1957 1981 2005 2051 2076 2074 2104 2077 2075 2104 2110 2099 2087 2061 2049 2051 2047 2025 2013 2009 1992 1972 1959 1947 1907 1892 1911 1890 1880 1879 1870 1870 1886 1908 1985 2044 2127 2195 2242 2244 2229 2164 2142 2130 2115 2098 2077 2097 2073 2073 2082 2082 2082 2090 2083 2069 1976 1966 1978 1993 1968 1983 2035 2029 2007 1990 1952 1916 1890 1867 1780 1757 1743 1700 1672 1671 1670 1637 1621 1623 1620 1604 1592 1581 1525 1489 1457 1398 1362 1309 1322 1319 1300 1281 1232 1213 1194 1165 1111 1090 1081 1066 1057 1050 1041 1080 1121 
1424 1436 1449 1481 1509 1541 1564 1605 1639 1664 1700 1726 1754 1784 1831 1859 1886 1932 1952 1977 2002 2046 2069 2092 2110 2109 2109 2092 2058 2080 2069 2040 2033 2041 2036 2009 1999 1996 1975 1955 1932 1918 1884 1865 1858 1825 1801 1785 1801 1850 1876 1907 2015 2075 2140 2193 2255 2249 2220 2153 2126 2123 2111 2068 2059 2048 2035 2038 2031 2016 2058 2060 2070 2001 1967 1961 1972 1981 1970 1960 2034 2023 2012 1988 1957 1907 1884 1819 1792 1757 1721 1678 1652 1628 1612 1603 1596 1582 1590 1575 1558 1543 1498 1469 1438 1385 1349 1303 1254 1223 1205 1183 1140 1119 1145 1127 1073 1053 1051 1041 1037 1034 1042 1115 1152 
