ncols 104
nrows 80
xllcorner -1620000
yllcorner 438000
cellsize 100
NODATA_value -9999
2245 2172 2101 1985 1933 1886 1794 1751 1712 1673 1605 1571 1544 1508 1497 1486 1472 1421 1386 1367 1359 1356 1353 1360 1382 1405 1435 1500 1537 1578 1625 1710 1751 1788 1860 1906 1960 2003 2060 2087 2106 2128 2162 2168 2169 2169 2171 2177 2185 2194 2203 2214 2240 2251 2268 2283 2307 2335 2378 2506 2518 2519 2494 2440 2420 2415 2484 2457 2401 2353 2303 2283 2263 2263 2256 2232 2191 2149 2147 2122 2027 1984 1955 1932 1884 1867 1845 1770 1732 1700 1679 1637 1615 1595 1584 1593 1612 1640 1707 1753 1790 1810 1831 1865
2238 2167 2107 1998 1943 1888 1796 1752 1712 1674 1605 1571 1542 1503 1492 1482 1467 1432 1397 1370 1358 1356 1352 1355 1377 1401 1430 1497 1532 1574 1620 1705 1748 1786 1852 1901 1951 1987 2026 2045 2070 2106 2135 2144 2146 2153 2158 2166 2185 2195 2197 2206 2238 2250 2265 2277 2313 2340 2388 2445 2420 2401 2390 2370 2379 2371 2428 2416 2382 2344 2279 2257 2233 2234 2224 2195 2155 2129 2125 2109 2030 1987 1953 1924 1869 1832 1818 1753 1715 1689 1668 1635 1611 1592 1596 1613 1638 1668 1742 1783 1815 1860 1888 1924
2200 2150 2056 2002 1950 1890 1794 1751 1712 1677 1603 1568 1538 1499 1489 1481 1469 1435 1401 1371 1357 1355 1351 1348 1367 1392 1428 1490 1526 1567 1612 1699 1741 1780 1850 1896 1938 1970 2013 2029 2051 2091 2100 2110 2121 2125 2131 2145 2177 2192 2204 2220 2235 2245 2259 2292 2319 2353 2418 2407 2386 2362 2344 2326 2295 2294 2322 2319 2306 2242 2221 2232 2212 2208 2184 2154 2119 2104 2097 2072 2010 1981 1950 1923 1865 1829 1791 1720 1690 1669 1643 1613 1600 1593 1614 1636 1666 1698 1766 1806 1844 1885 1917 1950
2204 2138 2028 1978 1929 1880 1785 1745 1707 1633 1600 1567 1536 1496 1487 1476 1456 1441 1412 1375 1357 1355 1357 1354 1365 1384 1410 1470 1505 1548 1593 1674 1732 1772 1841 1884 1922 1953 1998 2013 2031 2073 2082 2092 2103 2112 2119 2138 2156 2170 2187 2201 2231 2238 2252 2293 2329 2396 2397 2374 2354 2322 2286 2265 2251 2265 2291 2286 2277 2220 2199 2184 2168 2126 2099 2077 2042 2077 2065 2033 1993 1970 1944 1888 1860 1823 1783 1715 1678 1657 1620 1608 1605 1616 1655 1690 1731 1754 1815 1823 1858 1916 1944 1973
2210 2147 2032 1982 1940 1896 1791 1750 1707 1630 1593 1561 1534 1490 1481 1474 1455 1443 1420 1386 1360 1357 1360 1351 1363 1381 1404 1456 1492 1535 1618 1659 1703 1733 1808 1843 1879 1931 1955 1995 2011 2052 2062 2072 2090 2094 2111 2125 2145 2150 2171 2189 2221 2228 2245 2299 2339 2371 2350 2297 2271 2273 2243 2227 2225 2244 2268 2266 2263 2205 2179 2161 2136 2083 2060 2043 2018 2016 2007 1987 1963 1944 1919 1872 1841 1808 1772 1705 1675 1653 1620 1610 1614 1623 1669 1708 1752 1800 1836 1868 1902 1969 1996 2024
2190 2144 2036 1993 1948 1901 1799 1747 1698 1621 1586 1557 1530 1485 1477 1472 1453 1439 1422 1398 1373 1371 1370 1350 1360 1376 1399 1446 1479 1516 1602 1639 1681 1714 1788 1820 1852 1907 1928 1946 1952 1986 2011 2025 2050 2078 2099 2114 2135 2138 2161 2198 2215 2221 2232 2281 2326 2360 2314 2281 2250 2232 2213 2218 2210 2206 2220 2234 2249 2183 2143 2116 2089 2040 2028 2017 1994 1991 1982 1967 1943 1925 1903 1843 1815 1789 1755 1697 1683 1666 1626 1614 1622 1629 1680 1723 1767 1820 1859 1899 1929 1992 2021 2054
2173 2125 2032 1990 1945 1844 1793 1740 1688 1613 1583 1555 1503 1482 1474 1468 1450 1436 1420 1399 1373 1371 1375 1346 1352 1369 1387 1424 1448 1499 1583 1618 1657 1697 1766 1798 1830 1878 1898 1912 1921 1958 1980 1993 2032 2053 2067 2084 2130 2142 2153 2184 2206 2213 2222 2264 2300 2338 2304 2273 2245 2227 2213 2216 2208 2194 2197 2207 2203 2111 2075 2049 2009 1995 2001 1987 1971 1965 1954 1940 1929 1910 1889 1841 1810 1783 1748 1707 1697 1675 1634 1624 1629 1638 1688 1733 1784 1844 1887 1926 1952 2013 2045 2085
2157 2114 2025 1984 1941 1836 1787 1731 1683 1606 1574 1550 1497 1470 1465 1461 1445 1430 1415 1381 1369 1369 1375 1353 1348 1363 1393 1411 1433 1462 1542 1576 1605 1680 1715 1748 1806 1848 1867 1883 1898 1940 1960 1970 2015 2032 2048 2078 2125 2137 2147 2172 2191 2204 2218 2247 2273 2314 2294 2268 2253 2236 2213 2210 2205 2182 2177 2185 2182 2088 2052 2031 1993 1979 1956 1944 1951 1944 1931 1913 1913 1893 1875 1838 1811 1784 1732 1715 1706 1683 1644 1631 1632 1659 1686 1724 1776 1874 1928 1971 2021 2046 2082 2106
2142 2101 2018 1977 1935 1836 1785 1733 1682 1606 1574 1547 1499 1467 1444 1445 1431 1417 1401 1372 1365 1366 1374 1357 1343 1353 1385 1399 1420 1449 1523 1552 1582 1651 1687 1720 1747 1797 1824 1841 1881 1892 1933 1944 1989 2014 2043 2098 2113 2125 2134 2164 2190 2199 2222 2243 2271 2313 2306 2274 2254 2239 2204 2194 2195 2168 2161 2170 2167 2080 2050 2028 1984 1968 1948 1940 1944 1938 1920 1897 1885 1862 1850 1831 1815 1798 1756 1731 1718 1693 1655 1644 1638 1663 1690 1726 1775 1875 1930 1976 2032 2058 2091 2129
2094 2029 1997 1971 1932 1834 1788 1734 1647 1613 1580 1552 1500 1468 1435 1435 1423 1408 1389 1365 1356 1353 1357 1349 1339 1340 1375 1388 1405 1436 1500 1529 1560 1626 1661 1693 1718 1771 1801 1820 1864 1883 1908 1939 1995 2023 2044 2083 2097 2118 2127 2180 2190 2194 2228 2247 2275 2311 2313 2276 2250 2211 2196 2187 2185 2146 2130 2125 2101 2072 2055 2038 1990 1971 1950 1937 1935 1924 1908 1882 1873 1857 1844 1829 1815 1799 1771 1755 1741 1720 1688 1668 1648 1665 1689 1724 1772 1876 1925 1970 2044 2068 2099 2134
2034 2001 1977 1957 1926 1845 1801 1749 1659 1618 1585 1555 1498 1465 1429 1419 1409 1394 1374 1354 1349 1346 1350 1348 1340 1338 1352 1364 1385 1409 1457 1484 1518 1604 1636 1660 1676 1744 1783 1822 1872 1899 1930 1963 2028 2045 2062 2089 2104 2127 2151 2198 2214 2233 2290 2272 2283 2302 2301 2277 2248 2203 2185 2176 2174 2144 2120 2108 2086 2066 2050 2037 2021 2006 1973 1970 1954 1922 1907 1876 1872 1864 1840 1834 1816 1803 1781 1767 1758 1730 1704 1675 1654 1668 1694 1731 1771 1856 1898 1937 2045 2075 2104 2137
1944 1950 1950 1930 1902 1841 1802 1751 1657 1615 1579 1540 1467 1437 1408 1385 1375 1376 1359 1345 1344 1341 1343 1345 1340 1336 1349 1357 1373 1416 1439 1466 1493 1542 1580 1633 1719 1763 1803 1836 1881 1908 1942 2013 2050 2069 2080 2107 2130 2166 2197 2246 2265 2287 2320 2299 2270 2266 2256 2247 2231 2185 2172 2162 2161 2145 2119 2095 2073 2065 2052 2041 2023 2013 1996 1997 1968 1942 1927 1896 1882 1870 1856 1849 1820 1809 1792 1784 1781 1760 1718 1686 1667 1679 1699 1738 1803 1850 1885 1919 2018 2069 2105 2174
1795 1882 1890 1887 1871 1825 1790 1744 1651 1610 1566 1515 1436 1409 1394 1372 1360 1352 1348 1344 1341 1339 1338 1343 1338 1335 1346 1353 1363 1402 1423 1444 1463 1553 1604 1639 1710 1749 1786 1824 1884 1911 1943 1992 2028 2065 2105 2139 2154 2185 2223 2240 2272 2301 2313 2288 2259 2247 2235 2228 2218 2166 2149 2143 2130 2119 2104 2085 2061 2058 2056 2048 2028 2021 2022 2001 1992 1980 1955 1929 1914 1893 1904 1886 1860 1843 1829 1842 1855 1810 1739 1710 1686 1698 1704 1742 1815 1846 1874 1909 1996 2053 2094 2173
1730 1710 1718 1739 1740 1736 1717 1687 1639 1595 1546 1442 1407 1386 1374 1359 1354 1351 1345 1344 1343 1343 1339 1340 1334 1332 1336 1342 1347 1378 1404 1422 1462 1559 1603 1634 1691 1735 1776 1809 1876 1906 1939 1987 2022 2055 2088 2121 2130 2142 2180 2201 2251 2279 2294 2266 2248 2228 2215 2213 2209 2152 2142 2132 2103 2095 2086 2079 2051 2044 2056 2047 2039 2036 2036 2001 1998 2005 1970 1956 1949 1940 1958 1952 1907 1872 1868 1877 1884 1839 1811 1781 1749 1727 1728 1763 1820 1838 1864 1893 1970 2031 2076 2164
1664 1638 1645 1660 1673 1670 1655 1632 1586 1554 1507 1421 1392 1369 1362 1355 1354 1351 1346 1346 1346 1342 1337 1339 1332 1334 1333 1335 1340 1367 1383 1407 1475 1524 1566 1605 1683 1727 1768 1798 1863 1898 1931 1981 2015 2052 2076 2101 2112 2118 2148 2176 2209 2231 2245 2232 2223 2197 2183 2197 2191 2139 2130 2115 2080 2077 2072 2070 2047 2041 2045 2043 2034 2030 2035 2011 2007 1996 1983 1980 1981 1978 1980 1984 1966 1899 1898 1901 1903 1874 1840 1808 1743 1740 1739 1769 1824 1844 1864 1915 1953 1998 2052 2157
1610 1582 1580 1583 1611 1618 1609 1593 1557 1534 1494 1424 1390 1369 1364 1360 1357 1353 1348 1344 1343 1341 1330 1334 1333 1337 1332 1331 1336 1362 1378 1397 1457 1496 1543 1584 1658 1692 1723 1800 1845 1878 1913 1978 2007 2039 2069 2079 2090 2097 2123 2153 2183 2204 2204 2198 2197 2175 2165 2160 2150 2106 2098 2091 2057 2057 2058 2062 2048 2040 2039 2040 2036 2028 2026 2019 2010 1999 1984 1980 1985 1999 2028 2046 2033 1981 1988 1928 1928 1899 1863 1826 1772 1750 1743 1769 1819 1841 1871 1923 1954 1998 2049 2166
1508 1487 1468 1473 1494 1554 1557 1534 1524 1508 1481 1428 1395 1371 1366 1361 1357 1355 1356 1346 1345 1340 1330 1319 1322 1338 1331 1331 1331 1354 1370 1387 1445 1483 1523 1563 1632 1669 1711 1791 1834 1871 1899 1961 1994 2015 2044 2054 2063 2082 2107 2128 2155 2169 2170 2171 2171 2154 2148 2143 2109 2095 2088 2085 2055 2043 2040 2057 2059 2047 2039 2038 2033 2030 2032 2023 2013 2005 1987 1984 1990 2005 2068 2089 2059 2048 2061 2025 1987 1943 1908 1860 1783 1753 1741 1756 1807 1833 1862 1929 1959 2000 2055 2174
1470 1459 1457 1452 1452 1449 1449 1441 1443 1450 1446 1435 1404 1377 1365 1360 1359 1371 1367 1355 1348 1338 1325 1314 1316 1340 1330 1321 1329 1345 1356 1372 1418 1468 1503 1540 1613 1658 1706 1781 1827 1863 1888 1948 1981 2005 2030 2037 2046 2054 2068 2082 2095 2109 2109 2111 2136 2130 2129 2127 2094 2088 2079 2073 2055 2041 2038 2048 2061 2054 2039 2044 2049 2044 2028 2028 2028 2034 2004 2003 2012 2072 2104 2117 2103 2094 2104 2049 1978 1962 1920 1869 1782 1754 1742 1742 1778 1801 1845 1943 1966 2008 2070 2176
1492 1489 1483 1475 1457 1452 1445 1434 1429 1423 1417 1413 1407 1392 1365 1371 1392 1386 1381 1368 1356 1335 1318 1311 1304 1334 1327 1319 1325 1341 1355 1365 1403 1438 1474 1554 1597 1643 1694 1788 1828 1862 1918 1943 1970 1990 2014 2016 2025 2034 2045 2057 2073 2082 2084 2086 2086 2092 2091 2081 2063 2069 2067 2061 2053 2039 2037 2042 2055 2056 2041 2053 2057 2057 2048 2047 2049 2055 2063 2061 2079 2159 2177 2186 2154 2140 2122 2064 1992 1971 1929 1878 1782 1756 1743 1746 1769 1796 1833 1940 1979 2027 2117 2159
1590 1589 1527 1513 1492 1484 1474 1457 1452 1449 1446 1443 1420 1398 1379 1390 1404 1410 1384 1367 1352 1331 1317 1304 1298 1324 1320 1313 1322 1337 1348 1359 1394 1424 1459 1538 1589 1639 1683 1786 1822 1852 1913 1936 1948 1960 1993 1996 2002 2018 2023 2034 2048 2058 2059 2068 2063 2061 2057 2048 2044 2053 2046 2044 2048 2040 2037 2038 2053 2062 2055 2068 2071 2066 2067 2067 2078 2091 2097 2097 2109 2190 2208 2190 2157 2116 2112 2085 2012 1978 1932 1887 1793 1757 1744 1749 1765 1792 1830 1933 1983 2020 2106 2146
1635 1634 1618 1594 1580 1565 1551 1519 1474 1468 1456 1446 1422 1400 1392 1405 1416 1412 1407 1388 1368 1332 1315 1302 1289 1314 1316 1310 1312 1323 1342 1354 1388 1414 1447 1527 1579 1631 1678 1786 1819 1849 1903 1926 1941 1950 1965 1968 1963 1975 1982 1986 2023 2033 2034 2033 2023 2023 2021 2017 2018 2024 2025 2030 2036 2036 2035 2038 2044 2065 2106 2107 2107 2106 2094 2087 2107 2134 2129 2126 2151 2222 2229 2168 2125 2115 2115 2088 2009 1963 1914 1864 1777 1749 1750 1748 1757 1786 1826 1933 1973 2009 2096 2136
1675 1677 1667 1644 1629 1606 1585 1555 1540 1526 1474 1463 1452 1435 1411 1426 1436 1433 1421 1406 1392 1342 1323 1303 1297 1309 1309 1305 1308 1320 1332 1361 1378 1404 1438 1525 1574 1625 1733 1777 1813 1842 1887 1910 1931 1938 1952 1949 1942 1952 1960 1961 1959 1952 1953 1953 1949 1952 1953 1984 1986 1990 2001 2015 2022 2029 2032 2036 2035 2062 2133 2130 2128 2126 2119 2127 2147 2180 2190 2189 2195 2236 2209 2152 2114 2120 2113 2086 1990 1954 1902 1803 1766 1748 1753 1753 1755 1780 1871 1924 1975 2012 2086 2129
1720 1719 1707 1687 1679 1659 1632 1588 1581 1554 1509 1494 1478 1461 1465 1467 1476 1458 1450 1438 1418 1363 1333 1304 1298 1306 1305 1301 1306 1317 1332 1359 1378 1405 1435 1526 1577 1635 1733 1764 1796 1824 1857 1893 1912 1922 1929 1928 1918 1927 1931 1927 1920 1925 1924 1917 1917 1920 1924 1930 1929 1931 1940 1954 1960 2015 2021 2022 2030 2064 2147 2157 2144 2143 2166 2162 2174 2218 2225 2228 2246 2213 2192 2185 2115 2100 2073 2041 1971 1931 1882 1793 1762 1750 1753 1757 1757 1779 1869 1916 1979 2022 2086 2127
1832 1836 1830 1827 1803 1715 1679 1654 1625 1596 1547 1528 1510 1497 1487 1487 1491 1465 1450 1432 1417 1379 1346 1311 1292 1302 1297 1299 1306 1315 1327 1361 1382 1406 1435 1521 1569 1626 1711 1742 1766 1795 1821 1831 1845 1867 1869 1865 1868 1895 1893 1891 1889 1889 1892 1885 1888 1892 1899 1903 1904 1905 1912 1920 1918 1935 1979 2000 2023 2059 2146 2173 2164 2204 2224 2233 2235 2265 2278 2295 2277 2212 2195 2178 2115 2091 2047 2012 1946 1907 1864 1774 1753 1750 1752 1767 1771 1785 1857 1920 1983 2029 2092 2133
1880 1889 1890 1874 1853 1827 1771 1756 1729 1691 1631 1568 1544 1511 1512 1509 1502 1476 1459 1439 1392 1374 1351 1315 1282 1295 1293 1293 1305 1324 1348 1372 1386 1412 1436 1509 1551 1603 1677 1702 1733 1756 1790 1799 1806 1822 1828 1830 1833 1831 1829 1835 1831 1830 1828 1827 1861 1866 1872 1878 1883 1888 1891 1895 1890 1903 1963 1992 2017 2048 2125 2165 2188 2241 2268 2303 2333 2401 2361 2335 2244 2212 2202 2182 2132 2089 2040 1962 1936 1904 1854 1769 1755 1751 1758 1799 1806 1828 1872 1917 1974 2014 2092 2137
1930 1941 1942 1912 1882 1857 1807 1784 1760 1718 1661 1631 1598 1558 1555 1539 1522 1489 1465 1440 1398 1364 1343 1319 1279 1288 1283 1297 1307 1328 1364 1395 1393 1412 1457 1480 1506 1536 1583 1607 1679 1728 1747 1758 1769 1786 1795 1802 1807 1805 1804 1806 1808 1808 1805 1809 1822 1829 1840 1854 1859 1863 1879 1880 1880 1884 1944 1974 2002 2031 2109 2154 2186 2242 2270 2305 2345 2430 2423 2365 2284 2242 2223 2225 2159 2081 2023 1954 1937 1903 1854 1782 1769 1773 1808 1818 1820 1837 1876 1909 1962 2052 2080 2112
2021 2021 1969 1943 1904 1881 1826 1804 1779 1746 1687 1658 1619 1578 1568 1548 1528 1497 1478 1459 1414 1386 1358 1330 1278 1274 1280 1299 1309 1339 1382 1418 1419 1426 1438 1450 1479 1508 1547 1566 1587 1635 1664 1683 1698 1736 1771 1776 1777 1770 1775 1781 1788 1786 1782 1799 1807 1817 1828 1848 1853 1862 1882 1886 1887 1889 1919 1935 1953 2003 2091 2138 2179 2242 2280 2320 2360 2448 2431 2392 2315 2271 2241 2231 2153 2082 1999 1937 1927 1918 1887 1802 1791 1808 1840 1849 1843 1841 1875 1911 1961 2059 2083 2107
2077 2063 2019 1990 1964 1931 1859 1832 1792 1729 1705 1681 1641 1589 1574 1555 1514 1498 1481 1459 1415 1390 1359 1332 1293 1275 1279 1290 1307 1349 1397 1440 1449 1456 1467 1466 1468 1482 1518 1540 1568 1618 1646 1666 1686 1718 1729 1734 1735 1737 1745 1755 1780 1772 1774 1788 1799 1816 1835 1862 1871 1882 1898 1906 1906 1904 1915 1927 1941 2018 2059 2113 2162 2265 2305 2337 2433 2463 2434 2404 2332 2287 2262 2200 2145 2102 2044 1953 1944 1938 1915 1902 1898 1903 1919 1909 1890 1846 1878 1912 1962 2060 2097 2128
2125 2109 2046 2018 1992 1946 1867 1837 1811 1753 1730 1694 1656 1604 1581 1558 1517 1498 1479 1456 1412 1385 1355 1312 1291 1271 1277 1288 1307 1347 1440 1472 1507 1518 1534 1534 1535 1493 1505 1528 1555 1609 1639 1663 1682 1706 1714 1719 1737 1751 1766 1779 1797 1807 1822 1842 1858 1880 1902 1887 1904 1918 1929 1938 1929 1919 1922 1932 1943 2017 2059 2104 2163 2269 2316 2371 2489 2479 2434 2405 2317 2276 2251 2181 2141 2115 2084 1990 1968 1956 1955 1946 1936 1934 1921 1922 1900 1879 1897 1922 1964 2077 2125 2165
2159 2141 2074 2046 2006 1954 1872 1844 1818 1759 1729 1694 1660 1607 1581 1559 1516 1494 1472 1447 1400 1379 1351 1310 1287 1270 1275 1292 1305 1344 1448 1489 1528 1548 1571 1575 1578 1580 1575 1577 1596 1623 1640 1663 1694 1697 1702 1708 1752 1773 1800 1831 1835 1852 1865 1879 1896 1916 1934 1937 1942 1953 1977 1984 1982 1973 1936 1944 1954 2022 2061 2111 2168 2263 2317 2377 2483 2451 2416 2379 2298 2261 2219 2143 2136 2125 2097 2053 2017 1994 1991 1985 1974 1954 1930 1936 1918 1913 1929 1941 1973 2091 2131 2169
2216 2186 2104 2062 2016 1917 1880 1851 1820 1757 1726 1691 1633 1603 1578 1557 1510 1488 1463 1439 1392 1362 1335 1305 1286 1266 1272 1295 1308 1348 1456 1505 1541 1570 1606 1610 1612 1620 1619 1617 1631 1654 1672 1695 1721 1731 1740 1752 1812 1851 1840 1881 1894 1928 1912 1913 1928 1940 1961 1958 1955 1972 2014 2012 2002 1994 1997 1998 2006 2065 2105 2150 2216 2258 2315 2385 2461 2412 2369 2339 2261 2235 2197 2133 2128 2116 2095 2062 2054 2072 2131 2122 2059 2033 1953 1958 1940 1948 1961 1976 1987 2100 2134 2170
2234 2193 2096 2053 2015 1931 1894 1858 1822 1758 1725 1693 1632 1600 1576 1555 1505 1481 1455 1409 1381 1353 1328 1303 1283 1265 1281 1292 1314 1364 1475 1526 1566 1598 1627 1646 1655 1664 1667 1660 1678 1704 1713 1731 1752 1763 1776 1796 1861 1901 1938 2007 2040 2031 1998 1996 1968 1975 2005 1978 1971 1989 2077 2055 2030 2028 2035 2040 2057 2128 2160 2189 2270 2303 2318 2362 2423 2369 2315 2264 2228 2202 2174 2131 2126 2110 2088 2077 2079 2109 2199 2173 2113 2039 1997 1977 1969 1999 2031 2033 2017 2097 2137 2175
2217 2158 2055 2019 1982 1918 1884 1846 1815 1754 1722 1690 1624 1591 1562 1538 1495 1468 1451 1399 1372 1345 1317 1298 1283 1264 1285 1294 1323 1372 1484 1538 1578 1641 1664 1685 1703 1733 1743 1746 1731 1743 1750 1764 1780 1796 1814 1874 1921 1973 2005 2059 2084 2073 2036 2007 2021 2050 2031 2027 2041 2077 2117 2096 2085 2073 2081 2089 2116 2183 2217 2238 2301 2317 2321 2360 2422 2359 2289 2215 2190 2170 2156 2135 2119 2103 2096 2094 2105 2150 2225 2195 2143 2062 2029 2003 1988 2023 2059 2061 2038 2081 2139 2182
2149 2078 2043 2013 1974 1886 1854 1822 1794 1736 1707 1686 1622 1588 1557 1531 1485 1458 1434 1378 1350 1324 1293 1270 1255 1259 1293 1303 1333 1383 1493 1549 1593 1652 1676 1698 1716 1752 1766 1776 1790 1798 1814 1835 1826 1841 1880 1924 1972 2023 2066 2117 2124 2093 2028 2012 2025 2050 2045 2068 2092 2137 2134 2143 2170 2205 2207 2239 2248 2242 2260 2272 2306 2323 2328 2358 2414 2332 2263 2200 2174 2157 2151 2138 2117 2101 2104 2118 2145 2196 2260 2221 2176 2098 2065 2030 2019 2039 2074 2085 2051 2085 2152 2195
2162 2090 2053 2013 1970 1877 1848 1818 1767 1731 1704 1683 1612 1580 1546 1501 1473 1448 1426 1370 1339 1313 1267 1250 1263 1280 1305 1324 1354 1399 1511 1561 1607 1662 1689 1710 1731 1772 1786 1795 1808 1829 1842 1861 1847 1870 1914 1999 2034 2071 2102 2136 2150 2117 2055 2033 2034 2047 2077 2110 2137 2175 2184 2196 2217 2292 2280 2283 2304 2309 2296 2296 2344 2353 2343 2392 2414 2330 2252 2181 2155 2150 2149 2143 2119 2103 2109 2129 2159 2207 2276 2231 2186 2158 2131 2125 2101 2094 2098 2106 2079 2103 2164 2213
2183 2099 2056 2014 1972 1889 1858 1827 1776 1745 1710 1675 1609 1575 1541 1494 1462 1439 1417 1360 1325 1298 1249 1256 1272 1285 1312 1332 1368 1467 1522 1574 1619 1685 1712 1738 1786 1789 1806 1819 1818 1838 1862 1878 1869 1893 1935 2011 2046 2082 2115 2145 2156 2159 2133 2106 2080 2073 2172 2193 2188 2206 2219 2238 2249 2345 2316 2308 2309 2303 2299 2308 2364 2360 2353 2385 2388 2354 2258 2209 2170 2155 2152 2140 2118 2107 2114 2144 2181 2282 2296 2244 2192 2178 2186 2167 2142 2130 2149 2162 2151 2167 2205 2273
2203 2110 2060 2016 1975 1909 1875 1847 1777 1742 1702 1671 1606 1570 1535 1477 1446 1415 1394 1340 1305 1275 1245 1264 1272 1288 1318 1338 1372 1474 1529 1580 1624 1691 1720 1746 1802 1828 1848 1862 1854 1867 1876 1916 1893 1910 1953 2025 2059 2096 2146 2157 2168 2181 2146 2125 2106 2138 2187 2215 2220 2255 2258 2257 2275 2396 2364 2330 2321 2312 2308 2322 2371 2364 2361 2380 2371 2340 2277 2231 2198 2182 2151 2136 2127 2122 2144 2163 2200 2300 2312 2271 2224 2224 2227 2203 2194 2170 2178 2190 2185 2207 2229 2296
2225 2172 2142 2093 1990 1945 1900 1863 1774 1735 1698 1635 1600 1563 1527 1467 1434 1403 1383 1329 1300 1273 1259 1262 1284 1293 1331 1357 1379 1479 1532 1584 1624 1697 1725 1755 1813 1842 1865 1882 1885 1895 1895 1931 1928 1944 1974 2045 2085 2120 2159 2173 2187 2201 2157 2132 2122 2180 2213 2242 2235 2258 2254 2267 2349 2417 2438 2402 2386 2370 2363 2417 2430 2388 2384 2374 2358 2337 2304 2261 2251 2220 2154 2144 2140 2150 2200 2206 2236 2299 2342 2336 2292 2322 2303 2248 2218 2212 2212 2222 2213 2222 2245 2315
2218 2149 2120 2077 1986 1934 1893 1850 1753 1719 1681 1620 1594 1557 1523 1455 1424 1398 1351 1317 1294 1272 1251 1257 1280 1311 1334 1362 1399 1491 1543 1591 1669 1702 1732 1762 1824 1856 1881 1900 1914 1912 1920 1945 1947 1962 1985 2054 2097 2128 2188 2206 2220 2222 2186 2174 2186 2220 2243 2260 2245 2259 2260 2280 2369 2433 2483 2452 2431 2423 2430 2454 2452 2448 2435 2408 2392 2371 2334 2297 2292 2256 2170 2160 2155 2232 2237 2222 2239 2304 2351 2366 2338 2331 2319 2308 2256 2247 2265 2282 2263 2232 2264 2336
2187 2104 2077 2044 1967 1926 1884 1841 1748 1710 1674 1613 1578 1548 1514 1440 1404 1381 1328 1312 1288 1273 1233 1255 1278 1316 1340 1370 1411 1500 1545 1591 1668 1704 1740 1772 1842 1876 1906 1951 1954 1925 1937 1953 1964 1981 2020 2065 2107 2133 2200 2223 2238 2243 2221 2205 2224 2275 2308 2303 2282 2262 2282 2300 2385 2462 2540 2517 2489 2516 2509 2482 2473 2470 2456 2434 2418 2394 2355 2348 2344 2351 2310 2244 2216 2260 2262 2240 2255 2298 2349 2392 2351 2325 2321 2318 2285 2279 2280 2297 2284 2282 2307 2378
2127 2083 2034 2005 1945 1911 1873 1830 1741 1704 1668 1604 1568 1538 1505 1429 1402 1377 1323 1300 1276 1269 1228 1261 1295 1324 1348 1380 1423 1503 1545 1587 1665 1705 1740 1776 1843 1882 1915 1967 1975 1966 1963 1977 1997 2015 2050 2078 2115 2144 2210 2234 2246 2271 2247 2235 2255 2298 2326 2324 2299 2285 2305 2343 2432 2499 2576 2601 2630 2635 2569 2518 2499 2490 2482 2457 2440 2411 2378 2372 2369 2377 2366 2324 2303 2322 2316 2284 2262 2311 2346 2388 2360 2331 2327 2322 2305 2318 2304 2320 2307 2294 2321 2399
2135 2095 2058 2023 1944 1901 1858 1774 1739 1694 1656 1597 1567 1533 1463 1429 1397 1372 1316 1292 1273 1245 1233 1276 1313 1340 1366 1399 1435 1505 1541 1581 1662 1706 1740 1775 1840 1883 1922 1976 1991 1991 1978 1989 2010 2021 2060 2083 2116 2144 2216 2247 2268 2308 2280 2273 2283 2323 2343 2352 2340 2334 2348 2372 2465 2541 2602 2637 2661 2667 2671 2601 2573 2553 2522 2502 2460 2433 2403 2400 2404 2420 2406 2389 2375 2348 2344 2322 2310 2348 2374 2396 2393 2342 2324 2318 2340 2340 2334 2346 2333 2317 2338 2425
2064 2054 2035 2014 1936 1891 1849 1766 1732 1692 1652 1590 1558 1528 1452 1422 1389 1362 1310 1284 1267 1234 1239 1290 1329 1353 1375 1402 1468 1503 1536 1565 1644 1686 1722 1794 1825 1867 1919 1984 2005 2008 1996 2006 2017 2026 2071 2095 2123 2144 2212 2248 2265 2316 2326 2328 2326 2375 2395 2410 2364 2374 2376 2397 2514 2561 2584 2622 2653 2689 2718 2642 2609 2585 2547 2519 2499 2480 2456 2462 2476 2472 2435 2422 2405 2373 2367 2362 2374 2384 2392 2399 2430 2390 2350 2340 2354 2356 2360 2365 2361 2344 2433 2473
2018 1985 1957 1945 1909 1876 1835 1758 1725 1686 1650 1587 1555 1524 1450 1409 1375 1351 1302 1276 1247 1216 1248 1297 1332 1364 1389 1417 1467 1495 1532 1558 1639 1674 1701 1776 1809 1858 1897 1983 2019 2038 2025 2030 2026 2036 2078 2105 2129 2165 2207 2246 2251 2317 2340 2356 2379 2401 2419 2418 2389 2401 2424 2466 2554 2557 2581 2612 2642 2679 2730 2669 2642 2618 2574 2547 2531 2524 2506 2515 2512 2490 2480 2472 2455 2424 2419 2424 2424 2402 2405 2410 2448 2424 2383 2364 2372 2380 2380 2372 2364 2349 2432 2482
1991 1951 1909 1832 1804 1783 1817 1746 1715 1677 1610 1582 1551 1517 1445 1403 1368 1343 1299 1274 1245 1229 1270 1307 1351 1395 1411 1433 1480 1514 1547 1576 1639 1670 1708 1786 1823 1857 1893 1986 2028 2051 2039 2042 2049 2060 2097 2121 2141 2156 2196 2238 2241 2312 2345 2376 2414 2421 2433 2420 2403 2413 2434 2528 2546 2562 2585 2638 2671 2722 2752 2704 2686 2648 2607 2590 2591 2592 2588 2565 2547 2511 2499 2491 2480 2453 2456 2468 2448 2444 2442 2442 2474 2458 2433 2388 2389 2393 2395 2384 2376 2358 2426 2471
1983 1942 1898 1801 1762 1740 1714 1688 1675 1654 1598 1570 1544 1513 1437 1395 1363 1316 1297 1271 1240 1236 1280 1317 1395 1407 1420 1442 1504 1541 1565 1617 1659 1700 1746 1800 1839 1878 1917 1998 2040 2064 2058 2056 2060 2070 2109 2132 2144 2169 2207 2230 2242 2302 2334 2377 2462 2438 2430 2420 2422 2430 2444 2529 2548 2573 2598 2684 2758 2796 2815 2748 2712 2695 2702 2711 2709 2674 2654 2599 2567 2534 2522 2513 2492 2483 2490 2500 2472 2466 2462 2478 2484 2478 2457 2438 2427 2426 2426 2422 2414 2405 2418 2465
1976 1938 1890 1794 1748 1714 1686 1654 1645 1636 1595 1567 1537 1505 1422 1388 1359 1308 1288 1266 1238 1244 1289 1326 1400 1415 1426 1449 1514 1551 1584 1640 1670 1704 1749 1843 1882 1915 1996 2026 2058 2072 2081 2072 2077 2103 2122 2141 2148 2179 2213 2228 2246 2307 2328 2370 2451 2465 2443 2444 2464 2466 2470 2524 2553 2587 2628 2741 2766 2748 2782 2780 2753 2748 2771 2753 2734 2695 2674 2649 2617 2582 2582 2580 2606 2625 2539 2540 2502 2490 2487 2503 2504 2499 2481 2458 2446 2446 2446 2443 2435 2422 2435 2473
1983 1944 1907 1808 1764 1725 1661 1646 1631 1623 1590 1562 1531 1495 1415 1380 1351 1306 1286 1269 1235 1262 1303 1336 1406 1421 1432 1456 1522 1559 1596 1665 1698 1732 1770 1853 1895 1937 2010 2040 2065 2088 2113 2104 2109 2150 2166 2172 2158 2197 2218 2230 2298 2314 2331 2369 2442 2484 2471 2480 2482 2484 2493 2575 2592 2613 2609 2603 2592 2597 2720 2750 2792 2812 2814 2783 2758 2732 2699 2667 2639 2611 2616 2619 2686 2690 2648 2628 2592 2559 2546 2547 2526 2521 2514 2489 2479 2475 2463 2459 2450 2439 2461 2487
1988 1949 1917 1843 1812 1780 1716 1686 1661 1621 1586 1553 1520 1445 1407 1371 1344 1304 1287 1265 1216 1266 1301 1339 1403 1424 1447 1473 1534 1570 1608 1688 1714 1751 1788 1870 1914 1953 2014 2047 2074 2096 2122 2124 2125 2165 2187 2211 2229 2279 2285 2293 2317 2331 2338 2378 2455 2507 2504 2498 2501 2509 2525 2575 2555 2570 2566 2562 2557 2562 2598 2637 2670 2723 2751 2764 2775 2774 2741 2695 2640 2639 2657 2680 2761 2740 2699 2663 2638 2611 2579 2569 2577 2581 2586 2581 2557 2529 2499 2474 2465 2460 2486 2509
1994 1959 1924 1870 1847 1820 1745 1707 1672 1637 1582 1553 1519 1431 1395 1363 1337 1301 1285 1260 1220 1267 1300 1337 1407 1429 1454 1503 1534 1574 1613 1692 1730 1764 1839 1878 1920 1961 2018 2052 2081 2119 2131 2138 2148 2177 2199 2218 2240 2300 2331 2347 2349 2355 2372 2404 2505 2541 2521 2484 2523 2557 2591 2534 2515 2529 2538 2537 2529 2534 2569 2590 2618 2669 2685 2679 2685 2733 2763 2727 2676 2670 2700 2755 2835 2800 2756 2673 2682 2685 2632 2595 2603 2607 2601 2600 2575 2545 2516 2495 2495 2533 2565 2596
2003 1968 1940 1905 1880 1837 1746 1708 1678 1638 1577 1544 1509 1429 1394 1358 1327 1292 1279 1257 1224 1258 1294 1333 1408 1434 1460 1505 1534 1575 1617 1696 1733 1765 1837 1878 1921 1957 2018 2047 2073 2112 2129 2143 2149 2177 2191 2208 2257 2282 2315 2337 2369 2403 2429 2494 2503 2496 2466 2445 2477 2522 2532 2471 2463 2472 2488 2519 2513 2525 2539 2553 2571 2612 2621 2618 2626 2684 2711 2676 2617 2607 2618 2645 2709 2733 2717 2637 2666 2722 2710 2624 2627 2623 2612 2609 2580 2556 2533 2510 2516 2580 2610 2640
2050 2034 1987 1939 1886 1834 1741 1705 1673 1597 1567 1534 1499 1422 1388 1351 1298 1285 1273 1254 1216 1247 1282 1323 1402 1434 1466 1510 1538 1575 1616 1694 1733 1768 1834 1878 1919 1950 2011 2038 2067 2099 2112 2126 2130 2142 2156 2167 2217 2241 2262 2300 2347 2388 2423 2464 2460 2444 2419 2414 2439 2484 2461 2442 2432 2433 2445 2456 2474 2472 2455 2461 2475 2559 2572 2571 2597 2628 2634 2606 2570 2569 2581 2604 2666 2683 2672 2605 2635 2675 2721 2710 2673 2651 2627 2605 2576 2560 2525 2500 2494 2574 2606 2615
2047 2034 1980 1930 1876 1827 1732 1694 1659 1576 1541 1513 1481 1418 1383 1346 1285 1274 1261 1248 1201 1234 1273 1361 1395 1437 1469 1513 1539 1573 1649 1685 1723 1756 1829 1871 1907 1942 1998 2025 2057 2079 2078 2086 2093 2100 2121 2133 2191 2215 2228 2241 2278 2304 2348 2381 2382 2396 2378 2392 2421 2456 2416 2411 2409 2423 2422 2419 2439 2444 2435 2430 2445 2486 2495 2499 2505 2513 2521 2509 2532 2544 2556 2603 2630 2647 2647 2590 2613 2638 2730 2749 2699 2662 2626 2596 2567 2534 2446 2419 2433 2493 2564 2555
2000 2002 1958 1914 1864 1815 1723 1683 1646 1566 1528 1498 1467 1405 1357 1332 1253 1239 1228 1236 1197 1235 1270 1351 1391 1437 1470 1517 1544 1576 1645 1679 1715 1749 1817 1849 1881 1937 1963 1986 2009 2008 2036 2034 2045 2051 2073 2098 2167 2181 2189 2217 2235 2272 2317 2336 2346 2345 2315 2341 2385 2400 2348 2345 2381 2399 2407 2394 2409 2417 2407 2400 2428 2477 2480 2482 2478 2483 2490 2477 2492 2517 2522 2553 2581 2592 2613 2577 2597 2618 2698 2745 2725 2672 2618 2587 2562 2471 2418 2385 2403 2444 2442 2467
1880 1880 1874 1897 1851 1753 1713 1671 1633 1555 1521 1488 1457 1397 1359 1323 1237 1215 1205 1197 1212 1245 1280 1358 1399 1444 1477 1523 1550 1578 1643 1675 1705 1737 1798 1829 1860 1911 1936 1958 1973 1962 1944 1930 1944 1962 2006 2044 2128 2138 2144 2170 2201 2250 2289 2301 2310 2302 2287 2317 2347 2363 2316 2320 2321 2319 2330 2327 2326 2343 2370 2373 2407 2462 2465 2467 2457 2462 2469 2458 2474 2482 2500 2535 2556 2560 2554 2536 2557 2571 2634 2690 2704 2670 2620 2581 2554 2449 2405 2365 2373 2398 2397 2421
1826 1808 1817 1842 1809 1725 1685 1644 1603 1530 1510 1478 1418 1387 1346 1311 1206 1196 1191 1200 1230 1258 1289 1362 1403 1448 1512 1538 1559 1579 1626 1653 1695 1725 1785 1813 1837 1876 1895 1910 1923 1914 1894 1881 1887 1932 1975 2004 2037 2036 2052 2102 2140 2166 2235 2268 2271 2262 2258 2283 2296 2309 2275 2289 2287 2278 2286 2287 2289 2316 2317 2305 2369 2392 2407 2426 2414 2448 2450 2439 2446 2460 2480 2514 2526 2536 2495 2510 2543 2542 2574 2636 2652 2602 2575 2571 2519 2409 2372 2354 2352 2351 2353 2372
1775 1745 1778 1799 1781 1708 1670 1627 1590 1518 1486 1456 1393 1362 1326 1282 1191 1184 1186 1229 1242 1263 1285 1362 1406 1452 1517 1541 1562 1580 1614 1635 1657 1706 1729 1742 1759 1787 1802 1844 1883 1875 1848 1837 1850 1895 1937 1951 1992 1989 1999 2075 2105 2112 2137 2162 2174 2163 2198 2199 2199 2250 2247 2247 2258 2241 2245 2243 2252 2262 2265 2268 2319 2340 2371 2391 2378 2381 2362 2405 2406 2430 2447 2496 2505 2520 2473 2487 2520 2503 2536 2570 2603 2547 2545 2547 2488 2396 2361 2335 2323 2285 2280 2274
1711 1692 1720 1740 1742 1688 1650 1607 1573 1503 1473 1443 1380 1349 1310 1271 1182 1190 1199 1254 1243 1257 1283 1360 1401 1447 1519 1545 1566 1577 1602 1619 1634 1665 1682 1692 1703 1736 1752 1740 1786 1784 1771 1757 1780 1854 1879 1920 1944 1939 1940 2036 2045 2065 2093 2096 2117 2117 2151 2153 2150 2153 2160 2160 2162 2164 2174 2210 2221 2226 2227 2238 2283 2306 2323 2340 2356 2341 2317 2375 2383 2407 2419 2461 2473 2488 2437 2438 2450 2475 2521 2550 2592 2530 2530 2539 2487 2394 2360 2327 2312 2264 2239 2237
1587 1562 1592 1606 1606 1600 1573 1581 1516 1488 1458 1429 1365 1333 1295 1205 1180 1184 1196 1252 1241 1256 1274 1345 1385 1430 1509 1534 1545 1570 1585 1594 1600 1621 1622 1625 1625 1657 1674 1673 1721 1718 1717 1720 1727 1747 1752 1791 1811 1813 1825 1963 1990 2022 2026 2039 2063 2071 2102 2104 2104 2101 2104 2099 2104 2115 2125 2141 2153 2164 2177 2184 2200 2207 2278 2320 2337 2312 2297 2346 2365 2383 2389 2421 2440 2443 2427 2425 2450 2466 2513 2551 2569 2489 2485 2501 2484 2390 2350 2316 2302 2250 2212 2201
1522 1509 1528 1534 1529 1528 1512 1498 1463 1443 1422 1390 1322 1313 1280 1206 1179 1178 1195 1240 1236 1254 1300 1332 1373 1416 1481 1504 1518 1519 1518 1513 1512 1523 1518 1562 1570 1592 1606 1616 1653 1658 1669 1682 1679 1687 1698 1722 1742 1755 1767 1835 1869 1893 1928 1946 1962 1970 2041 2048 2052 2046 2046 2041 2050 2063 2071 2088 2102 2111 2123 2125 2153 2156 2169 2203 2227 2208 2224 2260 2340 2364 2382 2406 2422 2413 2423 2426 2437 2486 2515 2547 2546 2477 2468 2476 2400 2368 2333 2299 2280 2233 2200 2182
1465 1448 1458 1459 1458 1454 1439 1432 1406 1392 1375 1349 1294 1273 1256 1204 1185 1176 1199 1233 1232 1253 1290 1321 1357 1398 1450 1462 1469 1461 1470 1466 1478 1490 1486 1490 1501 1511 1525 1538 1566 1579 1629 1653 1641 1643 1655 1677 1694 1707 1764 1787 1822 1848 1891 1907 1919 1930 1932 1936 1940 1958 1949 1950 1991 2015 2027 2048 2061 2064 2072 2077 2103 2115 2124 2133 2145 2147 2169 2208 2247 2303 2377 2396 2411 2405 2422 2432 2442 2486 2513 2537 2521 2455 2445 2449 2384 2362 2328 2295 2260 2223 2186 2162
1361 1347 1344 1341 1392 1388 1375 1365 1346 1335 1326 1311 1270 1255 1244 1198 1180 1174 1197 1232 1224 1241 1272 1301 1332 1363 1411 1421 1425 1418 1430 1439 1455 1487 1498 1506 1525 1526 1526 1533 1541 1554 1570 1585 1588 1593 1599 1621 1659 1675 1727 1753 1778 1808 1857 1870 1880 1892 1892 1893 1903 1924 1920 1934 1949 1952 1956 1963 1979 1988 2000 2041 2052 2061 2071 2088 2092 2103 2126 2181 2222 2275 2371 2395 2406 2402 2412 2439 2455 2482 2504 2500 2484 2428 2423 2431 2367 2354 2324 2299 2251 2214 2184 2150
1313 1304 1301 1295 1287 1273 1265 1265 1245 1239 1278 1261 1247 1238 1230 1192 1174 1175 1226 1231 1220 1236 1262 1290 1316 1341 1346 1362 1389 1440 1468 1505 1493 1528 1542 1552 1566 1566 1565 1566 1562 1567 1581 1598 1598 1600 1606 1625 1637 1658 1685 1704 1739 1780 1823 1845 1852 1856 1860 1867 1881 1891 1895 1919 1956 1956 1958 1959 1971 1977 1988 2021 2030 2035 2046 2072 2076 2082 2134 2173 2216 2263 2366 2389 2397 2394 2399 2440 2460 2471 2487 2489 2484 2395 2378 2388 2346 2337 2303 2283 2226 2205 2182 2136
1271 1264 1259 1253 1236 1228 1225 1223 1214 1211 1207 1211 1209 1208 1207 1186 1170 1174 1227 1224 1216 1235 1251 1274 1299 1322 1348 1371 1404 1463 1498 1537 1596 1625 1638 1661 1686 1693 1688 1609 1607 1604 1612 1648 1644 1638 1641 1662 1672 1682 1707 1724 1750 1783 1821 1827 1833 1840 1848 1853 1861 1877 1886 1917 1971 1971 1983 1979 1985 1995 2011 2041 2047 2054 2075 2091 2094 2099 2159 2190 2235 2304 2379 2390 2383 2391 2402 2444 2459 2451 2468 2472 2431 2389 2370 2359 2323 2330 2285 2245 2221 2206 2184 2128
1193 1225 1222 1214 1196 1192 1192 1193 1188 1189 1192 1197 1197 1197 1197 1187 1171 1172 1202 1206 1229 1235 1227 1262 1280 1323 1349 1373 1411 1487 1526 1566 1645 1672 1700 1730 1762 1769 1769 1744 1742 1757 1764 1762 1756 1687 1703 1714 1719 1721 1742 1753 1780 1811 1834 1840 1840 1856 1871 1879 1898 1920 1938 1969 2018 2019 2026 2020 2009 2018 2040 2081 2087 2108 2130 2116 2129 2136 2195 2234 2289 2340 2393 2409 2418 2447 2458 2453 2447 2422 2439 2446 2431 2398 2374 2333 2290 2298 2263 2240 2216 2197 2175 2134
1174 1173 1175 1173 1168 1168 1169 1173 1173 1173 1175 1180 1181 1185 1190 1187 1171 1170 1192 1212 1232 1234 1220 1233 1265 1317 1348 1382 1424 1506 1547 1590 1682 1713 1743 1775 1813 1828 1837 1823 1807 1820 1823 1809 1799 1788 1782 1782 1783 1779 1796 1820 1818 1835 1860 1859 1856 1888 1911 1929 1958 1967 1992 2021 2054 2056 2055 2069 2087 2103 2133 2180 2197 2211 2148 2151 2166 2182 2253 2295 2335 2367 2428 2448 2463 2514 2474 2443 2439 2421 2399 2406 2447 2408 2361 2290 2263 2260 2234 2224 2211 2191 2170 2130
1172 1170 1170 1169 1168 1170 1171 1168 1167 1168 1167 1164 1163 1165 1182 1182 1171 1167 1191 1211 1232 1228 1214 1230 1257 1311 1344 1378 1474 1524 1576 1628 1720 1761 1793 1846 1841 1862 1883 1898 1867 1866 1873 1849 1830 1816 1812 1814 1812 1811 1832 1853 1878 1924 1936 1931 1941 1991 1966 1994 2009 2005 2033 2062 2105 2106 2103 2115 2130 2149 2173 2223 2244 2258 2251 2260 2275 2293 2347 2390 2372 2440 2477 2499 2530 2525 2464 2429 2430 2415 2392 2393 2429 2394 2341 2229 2225 2200 2161 2144 2166 2174 2151 2121
1171 1170 1172 1172 1175 1177 1179 1176 1179 1177 1172 1169 1168 1165 1165 1167 1165 1164 1184 1196 1227 1223 1209 1226 1246 1305 1337 1377 1475 1534 1590 1643 1735 1776 1808 1867 1891 1916 1936 1961 1964 1960 1914 1897 1856 1842 1854 1861 1859 1872 1882 1900 1915 1959 1959 1961 1983 2039 2054 2068 2048 2052 2070 2103 2214 2176 2174 2195 2197 2210 2218 2250 2259 2275 2325 2321 2314 2321 2373 2412 2427 2497 2548 2578 2530 2470 2427 2410 2415 2411 2386 2380 2409 2372 2303 2219 2211 2182 2133 2114 2142 2149 2092 2048
1205 1207 1211 1220 1191 1190 1194 1194 1193 1191 1192 1187 1182 1172 1164 1162 1163 1165 1177 1187 1204 1225 1212 1207 1225 1280 1333 1375 1481 1545 1602 1655 1745 1790 1823 1884 1906 1934 1958 1984 1990 1994 2005 1965 1923 1909 1948 1944 1942 1933 1946 1947 1944 1980 1975 1988 2038 2067 2092 2106 2102 2103 2101 2171 2228 2295 2315 2328 2313 2294 2279 2266 2270 2282 2357 2337 2330 2337 2395 2433 2446 2529 2559 2537 2506 2438 2401 2391 2363 2375 2373 2358 2360 2342 2273 2211 2191 2165 2115 2092 2111 2112 2064 2033
1254 1259 1259 1255 1249 1250 1243 1252 1254 1252 1199 1199 1191 1181 1165 1160 1161 1164 1171 1179 1195 1226 1210 1202 1235 1266 1311 1362 1480 1551 1616 1670 1758 1795 1826 1892 1919 1944 1966 1999 2011 2019 2036 1992 1960 1941 1984 1990 1988 2044 2020 1997 1994 2003 2007 2006 2061 2088 2112 2119 2146 2145 2134 2192 2257 2323 2353 2375 2347 2308 2294 2295 2303 2324 2407 2368 2359 2376 2415 2459 2480 2550 2507 2486 2461 2419 2389 2383 2349 2363 2360 2338 2336 2320 2290 2192 2157 2115 2069 2037 2067 2063 2039 2011
1305 1312 1314 1293 1293 1292 1283 1292 1298 1298 1261 1241 1215 1198 1171 1158 1159 1164 1169 1176 1190 1226 1210 1197 1220 1250 1297 1351 1472 1541 1605 1712 1754 1788 1817 1888 1917 1944 1977 2005 2022 2033 2060 2023 1991 1995 2014 2041 2055 2072 2037 2026 2022 2027 2048 2071 2129 2158 2163 2164 2205 2201 2164 2200 2262 2314 2358 2393 2364 2324 2311 2312 2317 2345 2426 2387 2378 2415 2467 2520 2563 2464 2432 2417 2443 2407 2376 2374 2342 2348 2334 2319 2324 2306 2300 2189 2139 2096 2022 2002 2008 2004 1963 1920
1408 1362 1361 1343 1338 1333 1325 1331 1329 1328 1299 1269 1238 1210 1179 1163 1157 1160 1163 1164 1174 1225 1214 1198 1213 1240 1285 1336 1461 1524 1580 1694 1736 1759 1784 1859 1895 1926 1960 1988 2010 2033 2092 2105 2081 2099 2069 2088 2094 2091 2063 2056 2053 2059 2097 2123 2169 2188 2184 2234 2240 2227 2220 2256 2276 2321 2370 2413 2379 2343 2327 2327 2330 2371 2437 2409 2396 2444 2499 2555 2578 2442 2416 2393 2388 2365 2353 2351 2318 2307 2296 2304 2314 2293 2293 2177 2119 2075 1996 1961 1967 1963 1906 1869
1464 1468 1457 1442 1442 1428 1417 1373 1363 1358 1326 1296 1256 1209 1190 1173 1156 1158 1160 1163 1193 1221 1215 1203 1201 1225 1261 1312 1432 1484 1549 1651 1692 1718 1744 1810 1851 1895 1930 1959 1981 2010 2086 2113 2119 2121 2135 2138 2152 2196 2166 2144 2091 2101 2136 2162 2209 2226 2226 2281 2271 2259 2266 2296 2321 2353 2423 2432 2412 2399 2388 2395 2429 2482 2448 2425 2418 2484 2539 2589 2471 2430 2409 2385 2348 2348 2347 2342 2306 2293 2270 2272 2274 2261 2225 2121 2064 2044 1955 1910 1916 1895 1845 1815
1523 1524 1503 1492 1483 1471 1458 1456 1447 1432 1386 1350 1305 1248 1203 1186 1160 1155 1158 1160 1185 1211 1219 1206 1197 1221 1255 1355 1416 1462 1487 1554 1583 1618 1691 1718 1800 1839 1893 1919 1945 1981 2064 2103 2125 2143 2148 2159 2181 2243 2213 2190 2179 2189 2202 2228 2286 2281 2284 2304 2296 2293 2309 2340 2379 2413 2476 2497 2451 2431 2413 2425 2459 2481 2456 2438 2431 2449 2499 2541 2469 2429 2410 2380 2334 2329 2336 2328 2299 2282 2258 2250 2253 2234 2117 2060 2019 1968 1861 1820 1799 1787 1742 1763
1576 1568 1550 1537 1525 1518 1505 1495 1488 1472 1414 1374 1336 1277 1240 1214 1188 1150 1152 1154 1180 1197 1216 1205 1195 1212 1242 1336 1393 1430 1453 1513 1542 1581 1655 1688 1724 1759 1832 1864 1897 1968 2010 2081 2114 2151 2162 2176 2229 2265 2262 2240 2222 2234 2249 2300 2294 2296 2310 2358 2365 2368 2372 2406 2444 2451 2539 2552 2487 2462 2457 2467 2487 2471 2448 2437 2423 2401 2428 2472 2460 2422 2384 2355 2325 2302 2302 2307 2286 2257 2241 2234 2229 2198 2078 1995 1966 1919 1817 1781 1767 1735 1713 1706
1660 1652 1643 1632 1573 1569 1548 1534 1521 1477 1438 1398 1365 1290 1257 1232 1201 1152 1151 1154 1174 1183 1190 1186 1192 1200 1217 1316 1367 1396 1415 1472 1509 1545 1621 1655 1695 1730 1799 1837 1870 1931 1973 2022 2074 2161 2175 2192 2239 2270 2293 2294 2271 2280 2300 2313 2310 2325 2342 2397 2406 2410 2421 2439 2469 2505 2599 2587 2560 2498 2447 2459 2456 2462 2442 2430 2415 2374 2373 2417 2420 2393 2362 2340 2316 2288 2287 2254 2219 2205 2203 2184 2167 2112 2021 1951 1914 1873 1781 1748 1745 1717 1713 1724
1705 1702 1689 1679 1674 1662 1643 1626 1603 1535 1489 1427 1389 1315 1275 1246 1187 1160 1149 1154 1175 1185 1186 1187 1194 1201 1212 1274 1300 1324 1357 1441 1492 1519 1586 1621 1661 1701 1766 1802 1840 1931 1983 2033 2084 2177 2196 2206 2246 2277 2310 2343 2401 2390 2369 2328 2331 2351 2383 2465 2449 2451 2462 2479 2509 2544 2620 2578 2542 2460 2426 2413 2431 2431 2379 2360 2341 2344 2339 2367 2369 2352 2341 2325 2306 2280 2283 2226 2196 2186 2174 2151 2117 2060 1935 1870 1837 1800 1744 1725 1726 1724 1743 1753
1751 1755 1737 1737 1734 1722 1694 1674 1644 1556 1515 1478 1441 1364 1326 1286 1219 1171 1150 1147 1173 1193 1188 1186 1193 1201 1214 1257 1287 1318 1397 1449 1504 1553 1627 1664 1699 1772 1801 1834 1843 1937 1983 2038 2123 2174 2209 2228 2253 2284 2315 2349 2424 2427 2403 2387 2405 2461 2521 2600 2580 2571 2518 2547 2575 2614 2611 2554 2518 2431 2417 2410 2425 2389 2354 2345 2305 2299 2290 2302 2321 2325 2324 2308 2301 2274 2268 2206 2188 2173 2132 2113 2051 2010 1898 1847 1812 1749 1734 1738 1752 1787 1805 1837
1850 1809 1801 1797 1788 1783 1747 1724 1687 1589 1551 1514 1473 1388 1342 1299 1233 1204 1173 1149 1160 1195 1210 1185 1190 1199 1211 1250 1288 1320 1391 1445 1505 1555 1636 1681 1719 1791 1821 1851 1874 1946 1990 2031 2111 2150 2204 2231 2262 2287 2318 2397 2445 2480 2473 2446 2477 2530 2561 2596 2610 2617 2620 2599 2587 2602 2566 2508 2491 2416 2413 2406 2418 2364 2342 2341 2291 2278 2283 2286 2308 2309 2302 2281 2260 2233 2210 2152 2134 2104 2013 2046 2002 1963 1873 1826 1791 1743 1743 1757 1771 1818 1854 1893
1890 1902 1900 1890 1874 1838 1810 1779 1717 1624 1579 1539 1448 1404 1359 1313 1245 1215 1186 1145 1160 1197 1212 1183 1183 1194 1208 1247 1277 1312 1382 1433 1498 1544 1641 1685 1722 1797 1827 1854 1877 1933 1967 2005 2072 2102 2126 2154 2222 2249 2278 2336 2427 2467 2491 2492 2502 2511 2504 2537 2556 2574 2592 2568 2535 2551 2556 2496 2459 2403 2396 2396 2392 2343 2331 2336 2284 2270 2271 2294 2301 2280 2263 2243 2225 2197 2171 2115 2094 2054 1966 1940 1911 1879 1821 1797 1776 1748 1761 1775 1795 1853 1889 1927