ncols	461
nrows	39
xllcorner	-1620000
yllcorner	462200
cellsize	100
NODATA_value	-9999
-9999	-9999	-9999	-9999	-9999	-9999	-9999	-9999	-9999	-9999	-9999	-9999	-9999	-9999	-9999	-9999	-9999	-9999	-9999	-9999	-9999	-9999	-9999	-9999	-9999	-9999	-9999	-9999	-9999	-9999	-9999	-9999	-9999	-9999	-9999	-9999	-9999	-9999	-9999	-9999	-9999	-9999	-9999	-9999	-9999	-9999	-9999	-9999	-9999	-9999	-9999	-9999	-9999	-9999	-9999	-9999	-9999	-9999	-9999	-9999	-9999	-9999	-9999	-9999	-9999	-9999	-9999	-9999	-9999	-9999	-9999	-9999	-9999	-9999	-9999	-9999	-9999	-9999	-9999	-9999	-9999	-9999	-9999	-9999	-9999	-9999	-9999	-9999	-9999	-9999	-9999	-9999	-9999	-9999	-9999	-9999	-9999	-9999	-9999	-9999	-9999	-9999	-9999	-9999	-9999	-9999	-9999	-9999	-9999	-9999	-9999	-9999	-9999	-9999	-9999	-9999	-9999	-9999	-9999	-9999	-9999	-9999	-9999	-9999	-9999	-9999	-9999	-9999	-9999	-9999	-9999	-9999	-9999	-9999	-9999	-9999	-9999	-9999	-9999	-9999	-9999	-9999	-9999	-9999	-9999	-9999	-9999	-9999	-9999	-9999	-9999	-9999	-9999	-9999	-9999	-9999	-9999	-9999	-9999	-9999	-9999	-9999	-9999	-9999	-9999	-9999	-9999	-9999	-9999	-9999	-9999	-9999	-9999	-9999	-9999	-9999	-9999	-9999	-9999	-9999	-9999	-9999	-9999	-9999	-9999	-9999	-9999	-9999	-9999	1774	1785	1799	1820	1820	1816	1815	1817	1811	1795	1724	1691	1659	1600	1564	1529	1507	1457	1431	1405	1375	1311	1291	1273	1215	1169	1120	1077	1008	980	954	908	882	862	844	797	788	783	759	733	705	678	633	600	594	590	593	594	587	563	543	574	716	768	773	772	826	835	820	784	767	749	723	664	642	622	557	530	510	499	444	441	441	441	441	441	441	441	441	441	441	441	441	441	441	458	511	547	626	675	699	732	739	733	731	750	761	779	817	834	857	877	928	958	982	1038	1076	1115	1154	1225	1255	1294	1385	1427	1466	1505	1588	1627	1661	1690	1764	1786	1808	1819	1809	1775	1754	1815	1854	1897	1974	1999	1933	1889	1841	1881	1917	1982	2037	2091	2138	2210	2185	2118	2037	2014	2007	1991	1902	1883	1889	1898	1925	1905	1891	1844	1806	1766	1697	1686	1666	1662	1670	1672	1681	1665	1624	1605	1599	1571	1565	1549	1542	1523	1520	1520	1513	1473	1431	1386	1301	1260	1220	1203	1232	1270	1322	1428	1480	1521	1619	1648	1677	1714	1784	1827	1824	1756	1787	1764	1779	1793	1808	1816	1804	1791	1767	1721	1654	1633	1623	1577	1549	1559	1596	1693	1731	1767	1780	1844	1880	1893	1920	1913	1903	1903	1951	1956	1931	1850	1789	1722	1667	1599	1570	1563	1492	1458	1436	1409	1337	1323	1338	1415	1455	1493	1530	1616	1658	1709	1775	1766	1762	1767	1873	1908	1934	1957	1978	1968	1957	1941	1931	1933	1941	1963	1982	2013	2096	2141	2147	2167
-9999	-9999	-9999	-9999	-9999	-9999	-9999	-9999	-9999	-9999	-9999	-9999	-9999	-9999	-9999	-9999	-9999	-9999	-9999	-9999	-9999	-9999	-9999	-9999	-9999	-9999	-9999	-9999	-9999	-9999	-9999	-9999	-9999	-9999	-9999	-9999	-9999	-9999	-9999	-9999	-9999	-9999	-9999	-9999	-9999	-9999	-9999	-9999	-9999	-9999	-9999	-9999	-9999	-9999	-9999	-9999	-9999	-9999	-9999	-9999	-9999	-9999	-9999	-9999	-9999	-9999	-9999	-9999	-9999	-9999	-9999	-9999	-9999	-9999	-9999	-9999	-9999	-9999	-9999	-9999	-9999	-9999	-9999	-9999	-9999	-9999	-9999	-9999	-9999	-9999	-9999	-9999	-9999	-9999	-9999	-9999	-9999	-9999	-9999	-9999	-9999	-9999	-9999	-9999	-9999	-9999	-9999	-9999	-9999	-9999	-9999	-9999	-9999	-9999	-9999	-9999	-9999	-9999	-9999	-9999	-9999	-9999	-9999	-9999	-9999	-9999	-9999	-9999	-9999	-9999	-9999	-9999	-9999	-9999	-9999	-9999	-9999	-9999	-9999	-9999	-9999	-9999	-9999	-9999	-9999	-9999	-9999	-9999	-9999	-9999	-9999	-9999	-9999	-9999	-9999	-9999	-9999	-9999	-9999	-9999	-9999	-9999	-9999	-9999	-9999	-9999	-9999	-9999	-9999	-9999	-9999	-9999	-9999	-9999	-9999	-9999	-9999	-9999	-9999	-9999	-9999	-9999	-9999	-9999	-9999	-9999	-9999	-9999	-9999	-9999	1811	1824	1838	1834	1824	1824	1824	1812	1796	1726	1690	1659	1597	1561	1521	1492	1445	1419	1399	1341	1318	1301	1283	1224	1188	1146	1062	1024	992	956	906	883	866	849	801	788	784	754	731	704	683	640	620	610	587	577	571	566	554	540	571	687	751	758	756	809	824	808	777	762	746	720	660	636	604	549	534	518	497	441	441	441	441	441	441	441	441	441	441	441	441	441	441	441	449	503	549	645	689	700	729	737	747	737	759	782	791	813	841	866	886	935	960	989	1051	1076	1115	1151	1220	1254	1306	1389	1424	1462	1503	1587	1627	1663	1739	1769	1797	1822	1844	1840	1816	1805	1842	1882	1926	1992	2014	2023	2005	1931	1914	1936	1986	2038	2088	2144	2243	2188	2113	2081	2042	2039	2026	1908	1869	1869	1870	1894	1871	1856	1835	1812	1782	1701	1659	1640	1624	1629	1640	1652	1642	1605	1570	1567	1535	1527	1513	1502	1488	1481	1476	1495	1477	1438	1354	1310	1268	1229	1188	1225	1257	1303	1415	1472	1528	1591	1601	1626	1662	1763	1798	1782	1733	1691	1670	1676	1684	1695	1704	1786	1774	1751	1709	1627	1608	1597	1558	1535	1548	1593	1673	1698	1716	1786	1820	1842	1854	1865	1865	1854	1838	1854	1918	1914	1853	1798	1738	1685	1586	1560	1526	1469	1428	1398	1380	1318	1301	1302	1369	1414	1457	1503	1583	1612	1685	1736	1731	1738	1755	1846	1875	1897	1947	1981	1961	1942	1946	1936	1926	1931	1939	1955	1978	2059	2049	2041	2174
-9999	-9999	-9999	-9999	-9999	-9999	-9999	-9999	-9999	-9999	-9999	-9999	-9999	-9999	-9999	-9999	-9999	-9999	-9999	-9999	-9999	-9999	-9999	-9999	-9999	-9999	-9999	-9999	-9999	-9999	-9999	-9999	-9999	-9999	-9999	-9999	-9999	-9999	-9999	-9999	-9999	-9999	-9999	-9999	-9999	-9999	-9999	-9999	-9999	-9999	-9999	-9999	-9999	-9999	-9999	-9999	-9999	-9999	-9999	-9999	-9999	-9999	-9999	-9999	-9999	-9999	-9999	-9999	-9999	-9999	-9999	-9999	-9999	-9999	-9999	-9999	-9999	-9999	-9999	-9999	-9999	-9999	-9999	-9999	-9999	-9999	-9999	-9999	-9999	-9999	-9999	-9999	-9999	-9999	-9999	-9999	-9999	-9999	-9999	-9999	-9999	-9999	-9999	-9999	-9999	-9999	-9999	-9999	-9999	-9999	-9999	-9999	-9999	-9999	-9999	-9999	-9999	-9999	-9999	-9999	-9999	-9999	-9999	-9999	-9999	-9999	-9999	-9999	-9999	-9999	-9999	-9999	-9999	-9999	-9999	-9999	-9999	-9999	-9999	-9999	-9999	-9999	-9999	-9999	-9999	-9999	-9999	-9999	-9999	-9999	-9999	-9999	-9999	-9999	-9999	-9999	-9999	-9999	-9999	-9999	-9999	-9999	-9999	-9999	-9999	-9999	-9999	-9999	-9999	-9999	-9999	-9999	-9999	-9999	-9999	-9999	-9999	-9999	-9999	-9999	-9999	-9999	-9999	-9999	-9999	-9999	-9999	-9999	-9999	-9999	-9999	-9999	1845	1843	1837	1834	1823	1814	1796	1732	1690	1661	1593	1557	1520	1491	1443	1411	1391	1342	1317	1300	1281	1230	1196	1162	1083	1045	1004	969	909	891	872	830	803	787	780	752	728	706	665	644	629	615	587	574	566	556	534	548	574	633	702	715	715	787	794	786	768	761	744	717	655	627	597	549	536	520	495	441	441	441	441	441	441	441	441	441	441	441	441	441	441	441	443	494	608	652	684	697	727	728	734	733	756	784	797	819	844	867	887	934	959	991	1053	1073	1110	1147	1210	1254	1304	1379	1417	1454	1491	1570	1598	1631	1721	1762	1806	1836	1868	1862	1846	1835	1867	1905	1942	2006	2032	2046	2030	1986	1945	1937	1963	1998	2042	2178	2223	2237	2177	2095	2092	2099	2044	1912	1865	1847	1851	1855	1850	1850	1823	1810	1782	1725	1694	1658	1609	1550	1564	1577	1591	1592	1551	1524	1488	1484	1479	1470	1453	1448	1440	1454	1460	1432	1352	1308	1265	1229	1169	1203	1249	1357	1415	1463	1522	1542	1554	1587	1696	1753	1780	1740	1702	1660	1644	1627	1633	1644	1647	1686	1713	1719	1697	1621	1581	1554	1544	1523	1532	1586	1640	1663	1692	1756	1798	1822	1829	1831	1835	1824	1797	1803	1815	1833	1862	1823	1761	1637	1574	1530	1490	1452	1428	1416	1352	1320	1295	1291	1350	1391	1435	1532	1561	1583	1631	1680	1679	1693	1726	1807	1854	1877	1931	1965	1952	1928	1935	1924	1913	1922	1929	1951	1975	2032	2022	2024	2068
-9999	-9999	-9999	-9999	-9999	-9999	-9999	-9999	-9999	-9999	-9999	-9999	-9999	-9999	-9999	-9999	-9999	-9999	-9999	-9999	-9999	-9999	-9999	-9999	-9999	-9999	-9999	-9999	-9999	-9999	-9999	-9999	-9999	-9999	-9999	-9999	-9999	-9999	-9999	-9999	-9999	-9999	-9999	-9999	-9999	-9999	-9999	-9999	-9999	-9999	-9999	-9999	-9999	-9999	-9999	-9999	-9999	-9999	-9999	-9999	-9999	-9999	-9999	-9999	-9999	-9999	-9999	-9999	-9999	-9999	-9999	-9999	-9999	-9999	-9999	-9999	-9999	-9999	-9999	-9999	-9999	-9999	-9999	-9999	-9999	-9999	-9999	-9999	-9999	-9999	-9999	-9999	-9999	-9999	-9999	-9999	-9999	-9999	-9999	-9999	-9999	-9999	-9999	-9999	-9999	-9999	-9999	-9999	-9999	-9999	-9999	-9999	-9999	-9999	-9999	-9999	-9999	-9999	-9999	-9999	-9999	-9999	-9999	-9999	-9999	-9999	-9999	-9999	-9999	-9999	-9999	-9999	-9999	-9999	-9999	-9999	-9999	-9999	-9999	-9999	-9999	-9999	-9999	-9999	-9999	-9999	-9999	-9999	-9999	-9999	-9999	-9999	-9999	-9999	-9999	-9999	-9999	-9999	-9999	-9999	-9999	-9999	-9999	-9999	-9999	-9999	-9999	-9999	-9999	-9999	-9999	-9999	-9999	-9999	-9999	-9999	-9999	-9999	-9999	-9999	-9999	-9999	-9999	-9999	-9999	-9999	-9999	-9999	-9999	-9999	-9999	-9999	-9999	1851	1848	1834	1827	1816	1770	1735	1699	1665	1604	1573	1537	1511	1453	1415	1396	1338	1312	1294	1277	1228	1197	1164	1079	1047	1012	970	910	889	868	834	811	789	775	738	721	705	666	655	647	629	593	581	572	544	531	536	561	621	683	699	720	739	749	760	773	755	736	712	650	620	592	551	536	519	485	441	441	441	441	441	441	441	441	441	441	441	441	441	441	441	446	500	611	652	680	689	712	720	722	729	749	773	789	819	845	867	906	927	959	992	1047	1066	1108	1172	1208	1251	1295	1366	1407	1440	1477	1546	1574	1607	1706	1754	1798	1832	1877	1887	1886	1879	1886	1911	1945	2014	2048	2069	2064	2049	2007	1962	1973	1997	2057	2156	2192	2222	2216	2207	2159	2084	1950	1895	1848	1816	1830	1821	1833	1805	1791	1789	1774	1727	1708	1687	1633	1534	1527	1541	1545	1529	1502	1454	1401	1404	1394	1393	1418	1416	1399	1418	1429	1418	1347	1302	1256	1220	1162	1196	1242	1345	1382	1409	1415	1476	1531	1581	1693	1747	1763	1728	1662	1636	1619	1573	1586	1593	1606	1656	1682	1689	1644	1606	1560	1527	1494	1468	1508	1553	1628	1663	1692	1756	1784	1800	1802	1799	1799	1793	1762	1764	1767	1788	1830	1822	1773	1664	1600	1554	1522	1475	1459	1442	1367	1335	1302	1282	1336	1384	1425	1509	1535	1562	1606	1654	1651	1664	1743	1786	1822	1860	1906	1917	1903	1884	1860	1906	1899	1911	1926	1945	1962	1997	1989	1998	2039
-9999	-9999	-9999	-9999	-9999	-9999	-9999	-9999	-9999	-9999	-9999	-9999	-9999	-9999	-9999	-9999	-9999	-9999	-9999	-9999	-9999	-9999	-9999	-9999	-9999	-9999	-9999	-9999	-9999	-9999	-9999	-9999	-9999	-9999	-9999	-9999	-9999	-9999	-9999	-9999	-9999	-9999	-9999	-9999	-9999	-9999	-9999	-9999	-9999	-9999	-9999	-9999	-9999	-9999	-9999	-9999	-9999	-9999	-9999	-9999	-9999	-9999	-9999	-9999	-9999	-9999	-9999	-9999	-9999	-9999	-9999	-9999	-9999	-9999	-9999	-9999	-9999	-9999	-9999	-9999	-9999	-9999	-9999	-9999	-9999	-9999	-9999	-9999	-9999	-9999	-9999	-9999	-9999	-9999	-9999	-9999	-9999	-9999	-9999	-9999	-9999	-9999	-9999	-9999	-9999	-9999	-9999	-9999	-9999	-9999	-9999	-9999	-9999	-9999	-9999	-9999	-9999	-9999	-9999	-9999	-9999	-9999	-9999	-9999	-9999	-9999	-9999	-9999	-9999	-9999	-9999	-9999	-9999	-9999	-9999	-9999	-9999	-9999	-9999	-9999	-9999	-9999	-9999	-9999	-9999	-9999	-9999	-9999	-9999	-9999	-9999	-9999	-9999	-9999	-9999	-9999	-9999	-9999	-9999	-9999	-9999	-9999	-9999	-9999	-9999	-9999	-9999	-9999	-9999	-9999	-9999	-9999	-9999	-9999	-9999	-9999	-9999	-9999	-9999	-9999	-9999	-9999	-9999	-9999	-9999	-9999	-9999	-9999	-9999	-9999	-9999	-9999	-9999	-9999	-9999	1836	1826	1814	1772	1735	1699	1668	1616	1585	1552	1491	1448	1406	1384	1330	1302	1279	1247	1228	1196	1158	1078	1048	1015	972	911	887	866	835	815	799	786	743	727	710	682	666	654	649	629	599	577	547	537	530	550	590	637	678	701	716	725	740	767	750	729	671	645	624	602	557	537	512	441	441	441	441	441	441	441	441	441	441	441	441	441	441	441	441	449	512	608	642	661	685	691	708	709	726	749	770	784	809	834	862	903	924	956	991	1045	1071	1098	1158	1192	1226	1263	1330	1390	1422	1485	1513	1542	1583	1688	1742	1785	1855	1877	1897	1906	1907	1909	1924	1962	2038	2075	2114	2147	2139	2059	2024	2031	2059	2086	2133	2150	2187	2229	2182	2145	2082	1940	1882	1838	1803	1785	1765	1748	1744	1752	1743	1745	1711	1692	1673	1579	1533	1494	1507	1500	1481	1457	1383	1353	1360	1340	1347	1344	1349	1350	1359	1372	1378	1339	1299	1251	1214	1155	1182	1228	1307	1331	1351	1379	1479	1530	1583	1680	1737	1744	1705	1605	1567	1543	1510	1531	1546	1574	1604	1650	1661	1621	1582	1539	1489	1453	1442	1506	1600	1633	1657	1694	1754	1763	1764	1752	1747	1765	1756	1727	1729	1729	1744	1778	1803	1780	1685	1634	1598	1571	1522	1496	1464	1377	1329	1294	1262	1320	1363	1398	1477	1501	1543	1587	1626	1626	1649	1726	1767	1808	1845	1898	1878	1871	1857	1849	1842	1857	1880	1881	1923	2027	1971	1954	1961	2010
-9999	-9999	-9999	-9999	-9999	-9999	-9999	-9999	-9999	-9999	-9999	-9999	-9999	-9999	-9999	-9999	-9999	-9999	-9999	-9999	-9999	-9999	-9999	-9999	-9999	-9999	-9999	-9999	-9999	-9999	-9999	-9999	-9999	-9999	-9999	-9999	-9999	-9999	-9999	-9999	-9999	-9999	-9999	-9999	-9999	-9999	-9999	-9999	-9999	-9999	-9999	-9999	-9999	-9999	-9999	-9999	-9999	-9999	-9999	-9999	-9999	-9999	-9999	-9999	-9999	-9999	-9999	-9999	-9999	-9999	-9999	-9999	-9999	-9999	-9999	-9999	-9999	-9999	-9999	-9999	-9999	-9999	-9999	-9999	-9999	-9999	-9999	-9999	-9999	-9999	-9999	-9999	-9999	-9999	-9999	-9999	-9999	-9999	-9999	-9999	-9999	-9999	-9999	-9999	-9999	-9999	-9999	-9999	-9999	-9999	-9999	-9999	-9999	-9999	-9999	-9999	-9999	-9999	-9999	-9999	-9999	-9999	-9999	-9999	-9999	-9999	-9999	-9999	-9999	-9999	-9999	-9999	-9999	-9999	-9999	-9999	-9999	-9999	-9999	-9999	-9999	-9999	-9999	-9999	-9999	-9999	-9999	-9999	-9999	-9999	-9999	-9999	-9999	-9999	-9999	-9999	-9999	-9999	-9999	-9999	-9999	-9999	-9999	-9999	-9999	-9999	-9999	-9999	-9999	-9999	-9999	-9999	-9999	-9999	-9999	-9999	-9999	-9999	-9999	-9999	-9999	-9999	-9999	-9999	-9999	-9999	-9999	-9999	-9999	-9999	-9999	-9999	-9999	-9999	-9999	-9999	-9999	1815	1765	1729	1697	1672	1620	1586	1554	1486	1443	1405	1382	1330	1296	1270	1241	1223	1194	1155	1066	1044	1014	947	918	889	867	840	826	812	766	748	730	717	691	681	675	663	636	617	599	571	554	528	521	527	605	648	685	705	713	725	766	749	726	674	652	626	603	561	537	505	441	441	441	441	441	441	441	441	441	441	441	441	441	441	441	441	445	509	611	641	649	683	687	695	706	728	743	758	776	813	829	840	897	926	956	988	1039	1054	1086	1132	1163	1205	1238	1307	1334	1357	1408	1457	1505	1550	1656	1716	1747	1837	1865	1891	1917	1938	1941	1954	2006	2047	2095	2139	2212	2204	2197	2143	2118	2151	2160	2164	2138	2165	2207	2155	2127	2088	1938	1875	1824	1786	1761	1751	1728	1715	1726	1730	1717	1674	1658	1613	1522	1482	1470	1466	1458	1439	1414	1348	1316	1311	1299	1307	1300	1310	1302	1318	1316	1339	1319	1277	1239	1170	1144	1167	1205	1258	1290	1341	1438	1482	1534	1585	1686	1712	1701	1665	1579	1534	1506	1464	1442	1470	1484	1520	1562	1607	1580	1554	1512	1465	1419	1432	1494	1578	1613	1645	1692	1741	1748	1750	1738	1736	1717	1698	1659	1659	1662	1664	1681	1758	1770	1705	1681	1649	1595	1563	1520	1468	1374	1321	1279	1247	1305	1342	1378	1441	1470	1516	1541	1572	1598	1646	1713	1749	1786	1837	1875	1840	1833	1815	1827	1808	1818	1869	1872	1921	2021	1990	1919	1900	1935
-9999	-9999	-9999	-9999	-9999	-9999	-9999	-9999	-9999	-9999	-9999	-9999	-9999	-9999	-9999	-9999	-9999	-9999	-9999	-9999	-9999	-9999	-9999	-9999	-9999	-9999	-9999	-9999	-9999	-9999	-9999	-9999	-9999	-9999	-9999	-9999	-9999	-9999	-9999	-9999	-9999	-9999	-9999	-9999	-9999	-9999	-9999	-9999	-9999	-9999	-9999	-9999	-9999	-9999	-9999	-9999	-9999	-9999	-9999	-9999	-9999	-9999	-9999	-9999	-9999	-9999	-9999	-9999	-9999	-9999	-9999	-9999	-9999	-9999	-9999	-9999	-9999	-9999	-9999	-9999	-9999	-9999	-9999	-9999	-9999	-9999	-9999	-9999	-9999	-9999	-9999	-9999	-9999	-9999	-9999	-9999	-9999	-9999	-9999	-9999	-9999	-9999	-9999	-9999	-9999	-9999	-9999	-9999	-9999	-9999	-9999	-9999	-9999	-9999	-9999	-9999	-9999	-9999	-9999	-9999	-9999	-9999	-9999	-9999	-9999	-9999	-9999	-9999	-9999	-9999	-9999	-9999	-9999	-9999	-9999	-9999	-9999	-9999	-9999	-9999	-9999	-9999	-9999	-9999	-9999	-9999	-9999	-9999	-9999	-9999	-9999	-9999	-9999	-9999	-9999	-9999	-9999	-9999	-9999	-9999	-9999	-9999	-9999	-9999	-9999	-9999	-9999	-9999	-9999	-9999	-9999	-9999	-9999	-9999	-9999	-9999	-9999	-9999	-9999	-9999	-9999	-9999	-9999	-9999	-9999	-9999	-9999	-9999	-9999	-9999	-9999	-9999	-9999	-9999	-9999	-9999	-9999	-9999	-9999	1729	1694	1668	1616	1583	1553	1475	1442	1409	1383	1332	1296	1268	1238	1221	1185	1149	1070	1037	1007	954	934	908	882	848	837	822	798	779	758	736	707	691	680	659	647	633	618	583	567	549	528	518	551	588	647	657	675	687	758	744	722	693	661	633	607	567	545	510	441	441	441	441	441	441	441	441	441	441	441	441	441	441	441	441	442	498	606	633	654	683	687	693	711	728	743	765	807	826	843	863	896	920	951	1010	1030	1044	1068	1110	1146	1187	1212	1279	1306	1324	1399	1446	1489	1533	1629	1634	1648	1746	1800	1836	1903	1953	1972	1991	2032	2067	2112	2161	2224	2235	2228	2184	2157	2183	2195	2204	2244	2274	2175	2121	2064	2011	1938	1883	1820	1747	1746	1743	1726	1704	1695	1694	1692	1656	1645	1604	1499	1458	1422	1387	1366	1353	1331	1279	1269	1275	1263	1269	1266	1258	1259	1274	1270	1298	1308	1265	1235	1164	1137	1157	1178	1291	1341	1396	1486	1524	1574	1602	1683	1673	1659	1602	1556	1508	1470	1421	1403	1426	1449	1487	1534	1575	1562	1518	1468	1431	1377	1420	1478	1576	1628	1668	1706	1731	1738	1741	1727	1721	1706	1692	1649	1639	1636	1618	1631	1666	1685	1712	1703	1685	1628	1576	1528	1479	1397	1340	1288	1256	1287	1317	1354	1419	1443	1491	1530	1553	1592	1615	1673	1714	1740	1762	1822	1815	1802	1762	1771	1780	1785	1830	1852	1912	1994	1965	1935	1890	1893
-9999	-9999	-9999	-9999	-9999	-9999	-9999	-9999	-9999	-9999	-9999	-9999	-9999	-9999	-9999	-9999	-9999	-9999	-9999	-9999	-9999	-9999	-9999	-9999	-9999	-9999	-9999	-9999	-9999	-9999	-9999	-9999	-9999	-9999	-9999	-9999	-9999	-9999	-9999	-9999	-9999	-9999	-9999	-9999	-9999	-9999	-9999	-9999	-9999	-9999	-9999	-9999	-9999	-9999	-9999	-9999	-9999	-9999	-9999	-9999	-9999	-9999	-9999	-9999	-9999	-9999	-9999	-9999	-9999	-9999	-9999	-9999	-9999	-9999	-9999	-9999	-9999	-9999	-9999	-9999	-9999	-9999	-9999	-9999	-9999	-9999	-9999	-9999	-9999	-9999	-9999	-9999	-9999	-9999	-9999	-9999	-9999	-9999	-9999	-9999	-9999	-9999	-9999	-9999	-9999	-9999	-9999	-9999	-9999	-9999	-9999	-9999	-9999	-9999	-9999	-9999	-9999	-9999	-9999	-9999	-9999	-9999	-9999	-9999	-9999	-9999	-9999	-9999	-9999	-9999	-9999	-9999	-9999	-9999	-9999	-9999	-9999	-9999	-9999	-9999	-9999	-9999	-9999	-9999	-9999	-9999	-9999	-9999	-9999	-9999	-9999	-9999	-9999	-9999	-9999	-9999	-9999	-9999	-9999	-9999	-9999	-9999	-9999	-9999	-9999	-9999	-9999	-9999	-9999	-9999	-9999	-9999	-9999	-9999	-9999	-9999	-9999	-9999	-9999	-9999	-9999	-9999	-9999	-9999	-9999	-9999	-9999	-9999	-9999	-9999	-9999	-9999	-9999	-9999	-9999	-9999	-9999	-9999	-9999	-9999	-9999	1640	1615	1578	1546	1478	1443	1409	1351	1318	1296	1269	1230	1206	1179	1146	1071	1038	1007	951	932	909	887	853	841	834	815	800	788	775	734	716	686	662	658	645	629	588	571	559	533	510	532	567	625	644	656	703	736	735	713	704	670	649	590	569	552	518	441	441	441	441	441	441	441	441	441	441	441	441	441	441	441	441	441	480	591	614	649	686	686	698	713	732	746	765	811	828	843	862	893	917	941	993	1007	1011	1027	1091	1137	1161	1221	1244	1267	1295	1374	1424	1468	1551	1584	1588	1608	1714	1758	1793	1829	1907	1959	2009	2096	2127	2162	2174	2241	2249	2237	2211	2196	2217	2215	2245	2291	2322	2185	2143	2083	2026	1925	1873	1811	1732	1720	1711	1709	1701	1686	1661	1637	1636	1625	1588	1489	1448	1404	1344	1334	1325	1308	1292	1302	1316	1327	1331	1301	1249	1179	1233	1225	1269	1284	1258	1231	1162	1133	1135	1180	1282	1338	1378	1478	1519	1553	1610	1615	1587	1552	1533	1494	1492	1447	1387	1372	1392	1413	1448	1498	1530	1529	1494	1450	1378	1366	1426	1474	1573	1615	1662	1698	1701	1704	1718	1713	1700	1690	1679	1638	1623	1610	1583	1590	1605	1624	1681	1677	1675	1630	1581	1535	1499	1425	1376	1326	1242	1260	1288	1330	1396	1426	1462	1517	1549	1569	1593	1657	1689	1713	1749	1763	1783	1764	1710	1701	1693	1729	1762	1832	1907	1964	1937	1903	1853	1861
-9999	-9999	-9999	-9999	-9999	-9999	-9999	-9999	-9999	-9999	-9999	-9999	-9999	-9999	-9999	-9999	-9999	-9999	-9999	-9999	-9999	-9999	-9999	-9999	-9999	-9999	-9999	-9999	-9999	-9999	-9999	-9999	-9999	-9999	-9999	-9999	-9999	-9999	-9999	-9999	-9999	-9999	-9999	-9999	-9999	-9999	-9999	-9999	-9999	-9999	-9999	-9999	-9999	-9999	-9999	-9999	-9999	-9999	-9999	-9999	-9999	-9999	-9999	-9999	-9999	-9999	-9999	-9999	-9999	-9999	-9999	-9999	-9999	-9999	-9999	-9999	-9999	-9999	-9999	-9999	-9999	-9999	-9999	-9999	-9999	-9999	-9999	-9999	-9999	-9999	-9999	-9999	-9999	-9999	-9999	-9999	-9999	-9999	-9999	-9999	-9999	-9999	-9999	-9999	-9999	-9999	-9999	-9999	-9999	-9999	-9999	-9999	-9999	-9999	-9999	-9999	-9999	-9999	-9999	-9999	-9999	-9999	-9999	-9999	-9999	-9999	-9999	-9999	-9999	-9999	-9999	-9999	-9999	-9999	-9999	-9999	-9999	-9999	-9999	-9999	-9999	-9999	-9999	-9999	-9999	-9999	-9999	-9999	-9999	-9999	-9999	-9999	-9999	-9999	-9999	-9999	-9999	-9999	-9999	-9999	-9999	-9999	-9999	-9999	-9999	-9999	-9999	-9999	-9999	-9999	-9999	-9999	-9999	-9999	-9999	-9999	-9999	-9999	-9999	-9999	-9999	-9999	-9999	-9999	-9999	-9999	-9999	-9999	-9999	-9999	-9999	-9999	-9999	-9999	-9999	-9999	-9999	-9999	-9999	-9999	-9999	-9999	-9999	1584	1554	1490	1456	1422	1357	1320	1296	1272	1230	1199	1169	1113	1065	1032	1005	953	930	906	878	863	850	848	825	808	799	782	751	730	711	680	674	665	648	602	578	561	535	508	508	538	593	621	630	685	719	730	707	713	683	658	598	566	523	481	441	441	441	441	441	441	441	441	441	441	441	441	441	441	441	441	441	461	553	599	635	675	682	706	716	734	747	762	805	823	841	861	890	905	927	983	991	1003	1019	1079	1104	1115	1156	1183	1220	1247	1299	1391	1432	1507	1528	1553	1579	1676	1712	1737	1823	1878	1924	1976	2081	2128	2167	2238	2271	2303	2330	2287	2262	2236	2231	2261	2313	2339	2221	2156	2118	2071	1968	1914	1878	1747	1717	1688	1687	1671	1648	1621	1583	1572	1567	1570	1490	1454	1412	1337	1317	1307	1307	1319	1339	1369	1398	1373	1332	1292	1186	1142	1140	1195	1213	1218	1190	1157	1137	1126	1169	1261	1313	1357	1444	1495	1549	1599	1580	1545	1510	1492	1453	1430	1427	1335	1312	1329	1344	1374	1444	1478	1490	1459	1421	1350	1356	1416	1462	1552	1593	1642	1686	1690	1689	1687	1675	1658	1650	1635	1605	1595	1599	1561	1549	1547	1606	1623	1629	1634	1622	1585	1548	1511	1421	1381	1341	1256	1229	1249	1281	1346	1381	1416	1503	1510	1536	1569	1612	1644	1680	1725	1727	1727	1727	1682	1679	1684	1705	1738	1805	1865	1910	1890	1870	1816	1825
-9999	-9999	-9999	-9999	-9999	-9999	-9999	-9999	-9999	-9999	-9999	-9999	-9999	-9999	-9999	-9999	-9999	-9999	-9999	-9999	-9999	-9999	-9999	-9999	-9999	-9999	-9999	-9999	-9999	-9999	-9999	-9999	-9999	-9999	-9999	-9999	-9999	-9999	-9999	-9999	-9999	-9999	-9999	-9999	-9999	-9999	-9999	-9999	-9999	-9999	-9999	-9999	-9999	-9999	-9999	-9999	-9999	-9999	-9999	-9999	-9999	-9999	-9999	-9999	-9999	-9999	-9999	-9999	-9999	-9999	-9999	-9999	-9999	-9999	-9999	-9999	-9999	-9999	-9999	-9999	-9999	-9999	-9999	-9999	-9999	-9999	-9999	-9999	-9999	-9999	-9999	-9999	-9999	-9999	-9999	-9999	-9999	-9999	-9999	-9999	-9999	-9999	-9999	-9999	-9999	-9999	-9999	-9999	-9999	-9999	-9999	-9999	-9999	-9999	-9999	-9999	-9999	-9999	-9999	-9999	-9999	-9999	-9999	-9999	-9999	-9999	-9999	-9999	-9999	-9999	-9999	-9999	-9999	-9999	-9999	-9999	-9999	-9999	-9999	-9999	-9999	-9999	-9999	-9999	-9999	-9999	-9999	-9999	-9999	-9999	-9999	-9999	-9999	-9999	-9999	-9999	-9999	-9999	-9999	-9999	-9999	-9999	-9999	-9999	-9999	-9999	-9999	-9999	-9999	-9999	-9999	-9999	-9999	-9999	-9999	-9999	-9999	-9999	-9999	-9999	-9999	-9999	-9999	-9999	-9999	-9999	-9999	-9999	-9999	-9999	-9999	-9999	-9999	-9999	-9999	-9999	-9999	-9999	-9999	-9999	-9999	-9999	-9999	-9999	-9999	1505	1470	1432	1368	1332	1303	1278	1232	1208	1185	1133	1099	1061	1028	970	944	926	892	869	861	860	835	816	802	769	754	734	715	686	677	668	634	610	590	569	544	526	502	496	555	600	622	674	712	729	705	714	689	660	603	567	524	475	441	441	441	441	441	441	441	441	441	441	441	441	441	441	441	441	441	513	553	592	627	668	674	704	723	734	745	761	807	830	837	850	890	900	913	964	968	993	1007	1061	1080	1096	1143	1168	1189	1204	1266	1309	1360	1424	1465	1511	1542	1639	1662	1678	1795	1844	1896	1946	2043	2107	2153	2248	2288	2324	2356	2353	2308	2279	2313	2312	2285	2270	2205	2162	2131	2046	2006	1979	1921	1779	1710	1669	1669	1643	1623	1595	1570	1558	1544	1524	1482	1453	1426	1351	1357	1320	1325	1340	1373	1411	1454	1411	1369	1331	1234	1168	1117	1143	1160	1174	1166	1125	1104	1124	1225	1286	1323	1350	1455	1511	1562	1574	1549	1508	1471	1443	1415	1381	1377	1333	1290	1294	1311	1324	1351	1390	1404	1373	1348	1311	1347	1400	1450	1532	1576	1624	1682	1683	1680	1679	1659	1644	1626	1618	1587	1571	1555	1529	1498	1479	1486	1494	1577	1568	1590	1584	1561	1492	1447	1407	1369	1285	1236	1222	1281	1316	1358	1386	1415	1442	1469	1486	1521	1557	1641	1687	1695	1693	1675	1657	1660	1680	1701	1734	1798	1834	1863	1876	1860	1789	1767
-9999	-9999	-9999	-9999	-9999	-9999	-9999	-9999	-9999	-9999	-9999	-9999	-9999	-9999	-9999	-9999	-9999	-9999	-9999	-9999	-9999	-9999	-9999	-9999	-9999	-9999	-9999	-9999	-9999	-9999	-9999	-9999	-9999	-9999	-9999	-9999	-9999	-9999	-9999	-9999	-9999	-9999	-9999	-9999	-9999	-9999	-9999	-9999	-9999	-9999	-9999	-9999	-9999	-9999	-9999	-9999	-9999	-9999	-9999	-9999	-9999	-9999	-9999	-9999	-9999	-9999	-9999	-9999	-9999	-9999	-9999	-9999	-9999	-9999	-9999	-9999	-9999	-9999	-9999	-9999	-9999	-9999	-9999	-9999	-9999	-9999	-9999	-9999	-9999	-9999	-9999	-9999	-9999	-9999	-9999	-9999	-9999	-9999	-9999	-9999	-9999	-9999	-9999	-9999	-9999	-9999	-9999	-9999	-9999	-9999	-9999	-9999	-9999	-9999	-9999	-9999	-9999	-9999	-9999	-9999	-9999	-9999	-9999	-9999	-9999	-9999	-9999	-9999	-9999	-9999	-9999	-9999	-9999	-9999	-9999	-9999	-9999	-9999	-9999	-9999	-9999	-9999	-9999	-9999	-9999	-9999	-9999	-9999	-9999	-9999	-9999	-9999	-9999	-9999	-9999	-9999	-9999	-9999	-9999	-9999	-9999	-9999	-9999	-9999	-9999	-9999	-9999	-9999	-9999	-9999	-9999	-9999	-9999	-9999	-9999	-9999	-9999	-9999	-9999	-9999	-9999	-9999	-9999	-9999	-9999	-9999	-9999	-9999	-9999	-9999	-9999	-9999	-9999	-9999	-9999	-9999	-9999	-9999	-9999	-9999	-9999	-9999	-9999	-9999	-9999	-9999	-9999	-9999	1371	1339	1314	1291	1250	1230	1203	1144	1109	1072	1038	982	957	935	907	886	873	861	832	819	804	774	765	743	720	687	681	670	638	616	594	571	550	539	511	508	538	569	601	658	684	700	679	704	695	659	597	562	530	486	441	441	441	441	441	441	441	441	441	441	441	441	441	441	441	441	441	508	548	587	618	663	672	687	723	735	749	769	811	828	839	860	868	860	865	902	922	965	1005	1035	1053	1079	1116	1132	1151	1216	1252	1290	1325	1407	1448	1486	1515	1559	1586	1620	1721	1783	1834	1891	2025	2069	2115	2241	2297	2348	2389	2416	2365	2340	2298	2269	2239	2218	2186	2150	2088	2044	2004	1959	1906	1755	1703	1660	1634	1615	1606	1581	1563	1542	1526	1489	1481	1465	1451	1383	1413	1416	1406	1444	1471	1509	1552	1526	1426	1372	1273	1203	1139	1096	1117	1132	1130	1099	1093	1135	1222	1281	1341	1391	1476	1524	1563	1543	1508	1474	1445	1388	1372	1342	1351	1328	1275	1257	1267	1277	1303	1374	1360	1335	1311	1312	1360	1414	1499	1539	1598	1635	1674	1676	1672	1667	1646	1627	1605	1599	1579	1554	1539	1518	1491	1462	1437	1438	1464	1472	1508	1525	1537	1518	1468	1431	1395	1309	1254	1217	1239	1288	1326	1345	1395	1414	1436	1475	1492	1526	1585	1632	1639	1626	1562	1554	1594	1665	1715	1758	1805	1814	1812	1817	1825	1754	1731
-9999	-9999	-9999	-9999	-9999	-9999	-9999	-9999	-9999	-9999	-9999	-9999	-9999	-9999	-9999	-9999	-9999	-9999	-9999	-9999	-9999	-9999	-9999	-9999	-9999	-9999	-9999	-9999	-9999	-9999	-9999	-9999	-9999	-9999	-9999	-9999	-9999	-9999	-9999	-9999	-9999	-9999	-9999	-9999	-9999	-9999	-9999	-9999	-9999	-9999	-9999	-9999	-9999	-9999	-9999	-9999	-9999	-9999	-9999	-9999	-9999	-9999	-9999	-9999	-9999	-9999	-9999	-9999	-9999	-9999	-9999	-9999	-9999	-9999	-9999	-9999	-9999	-9999	-9999	-9999	-9999	-9999	-9999	-9999	-9999	-9999	-9999	-9999	-9999	-9999	-9999	-9999	-9999	-9999	-9999	-9999	-9999	-9999	-9999	-9999	-9999	-9999	-9999	-9999	-9999	-9999	-9999	-9999	-9999	-9999	-9999	-9999	-9999	-9999	-9999	-9999	-9999	-9999	-9999	-9999	-9999	-9999	-9999	-9999	-9999	-9999	-9999	-9999	-9999	-9999	-9999	-9999	-9999	-9999	-9999	-9999	-9999	-9999	-9999	-9999	-9999	-9999	-9999	-9999	-9999	-9999	-9999	-9999	-9999	-9999	-9999	-9999	-9999	-9999	-9999	-9999	-9999	-9999	-9999	-9999	-9999	-9999	-9999	-9999	-9999	-9999	-9999	-9999	-9999	-9999	-9999	-9999	-9999	-9999	-9999	-9999	-9999	-9999	-9999	-9999	-9999	-9999	-9999	-9999	-9999	-9999	-9999	-9999	-9999	-9999	-9999	-9999	-9999	-9999	-9999	-9999	-9999	-9999	-9999	-9999	-9999	-9999	-9999	-9999	-9999	-9999	-9999	-9999	-9999	-9999	1356	1307	1281	1244	1216	1157	1123	1088	1023	1002	978	952	921	899	880	865	841	820	801	786	774	745	729	691	680	671	637	617	599	573	554	542	516	499	525	555	592	646	670	679	668	674	672	649	586	566	546	454	441	441	441	441	441	441	441	441	441	441	441	441	441	441	441	441	441	498	538	569	593	658	672	689	720	736	750	772	819	839	838	841	838	855	886	932	951	974	1014	1039	1056	1077	1127	1156	1157	1228	1259	1291	1312	1389	1423	1462	1516	1557	1589	1626	1713	1783	1821	1917	1977	2032	2092	2208	2264	2319	2393	2398	2354	2318	2253	2220	2195	2168	2142	2110	2058	1987	1956	1919	1879	1759	1691	1623	1556	1546	1536	1532	1544	1523	1516	1481	1466	1468	1449	1430	1467	1476	1476	1501	1527	1554	1580	1544	1485	1381	1327	1266	1205	1089	1072	1090	1093	1072	1106	1151	1240	1288	1344	1400	1503	1541	1563	1528	1497	1456	1419	1333	1287	1253	1236	1217	1253	1218	1215	1243	1258	1322	1315	1287	1259	1317	1367	1418	1510	1557	1607	1626	1641	1644	1644	1623	1602	1572	1552	1578	1564	1541	1500	1493	1476	1451	1408	1401	1414	1431	1457	1480	1498	1489	1483	1461	1430	1367	1309	1254	1180	1252	1285	1316	1370	1396	1418	1464	1479	1506	1567	1592	1591	1581	1539	1536	1548	1584	1675	1700	1705	1725	1732	1766	1763	1704	1695
-9999	-9999	-9999	-9999	-9999	-9999	-9999	-9999	-9999	-9999	-9999	-9999	-9999	-9999	-9999	-9999	-9999	-9999	-9999	-9999	-9999	-9999	-9999	-9999	-9999	-9999	-9999	-9999	-9999	-9999	-9999	-9999	-9999	-9999	-9999	-9999	-9999	-9999	-9999	-9999	-9999	-9999	-9999	-9999	-9999	-9999	-9999	-9999	-9999	-9999	-9999	-9999	-9999	-9999	-9999	-9999	-9999	-9999	-9999	-9999	-9999	-9999	-9999	-9999	-9999	-9999	-9999	-9999	-9999	-9999	-9999	-9999	-9999	-9999	-9999	-9999	-9999	-9999	-9999	-9999	-9999	-9999	-9999	-9999	-9999	-9999	-9999	-9999	-9999	-9999	-9999	-9999	-9999	-9999	-9999	-9999	-9999	-9999	-9999	-9999	-9999	-9999	-9999	-9999	-9999	-9999	-9999	-9999	-9999	-9999	-9999	-9999	-9999	-9999	-9999	-9999	-9999	-9999	-9999	-9999	-9999	-9999	-9999	-9999	-9999	-9999	-9999	-9999	-9999	-9999	-9999	-9999	-9999	-9999	-9999	-9999	-9999	-9999	-9999	-9999	-9999	-9999	-9999	-9999	-9999	-9999	-9999	-9999	-9999	-9999	-9999	-9999	-9999	-9999	-9999	-9999	-9999	-9999	-9999	-9999	-9999	-9999	-9999	-9999	-9999	-9999	-9999	-9999	-9999	-9999	-9999	-9999	-9999	-9999	-9999	-9999	-9999	-9999	-9999	-9999	-9999	-9999	-9999	-9999	-9999	-9999	-9999	-9999	-9999	-9999	-9999	-9999	-9999	-9999	-9999	-9999	-9999	-9999	-9999	-9999	-9999	-9999	-9999	-9999	-9999	-9999	-9999	-9999	-9999	-9999	-9999	-9999	-9999	-9999	1234	1186	1157	1130	1072	1019	993	976	934	917	895	856	836	818	803	777	763	742	712	691	682	677	645	624	606	583	552	551	521	489	507	538	577	635	653	661	660	664	661	641	576	551	536	461	441	441	441	441	441	441	441	441	441	441	441	441	441	441	441	441	441	490	527	560	620	648	667	682	718	736	750	772	818	833	822	816	832	865	890	926	953	979	1026	1037	1057	1081	1141	1174	1217	1290	1325	1365	1404	1414	1409	1450	1538	1587	1636	1667	1737	1773	1813	1907	1956	2018	2085	2204	2254	2299	2338	2299	2261	2231	2164	2130	2152	2104	2094	2065	2014	1930	1904	1864	1830	1741	1688	1619	1519	1500	1507	1499	1509	1491	1471	1456	1442	1433	1432	1467	1505	1524	1535	1555	1583	1603	1608	1572	1522	1404	1336	1268	1210	1113	1068	1030	1040	1084	1131	1168	1222	1286	1341	1453	1494	1520	1530	1506	1490	1457	1417	1326	1283	1234	1182	1165	1174	1158	1159	1205	1227	1229	1209	1229	1219	1333	1381	1432	1518	1551	1592	1620	1622	1622	1624	1612	1593	1565	1533	1513	1521	1500	1469	1449	1415	1435	1384	1382	1388	1394	1416	1438	1450	1451	1457	1455	1408	1367	1322	1268	1158	1187	1225	1265	1336	1357	1380	1442	1454	1490	1538	1564	1561	1544	1518	1523	1540	1568	1616	1642	1653	1659	1668	1674	1665	1605	1620
-9999	-9999	-9999	-9999	-9999	-9999	-9999	-9999	-9999	-9999	-9999	-9999	-9999	-9999	-9999	-9999	-9999	-9999	-9999	-9999	-9999	-9999	-9999	-9999	-9999	-9999	-9999	-9999	-9999	-9999	-9999	-9999	-9999	-9999	-9999	-9999	-9999	-9999	-9999	-9999	-9999	-9999	-9999	-9999	-9999	-9999	-9999	-9999	-9999	-9999	-9999	-9999	-9999	-9999	-9999	-9999	-9999	-9999	-9999	-9999	-9999	-9999	-9999	-9999	-9999	-9999	-9999	-9999	-9999	-9999	-9999	-9999	-9999	-9999	-9999	-9999	-9999	-9999	-9999	-9999	-9999	-9999	-9999	-9999	-9999	-9999	-9999	-9999	-9999	-9999	-9999	-9999	-9999	-9999	-9999	-9999	-9999	-9999	-9999	-9999	-9999	-9999	-9999	-9999	-9999	-9999	-9999	-9999	-9999	-9999	-9999	-9999	-9999	-9999	-9999	-9999	-9999	-9999	-9999	-9999	-9999	-9999	-9999	-9999	-9999	-9999	-9999	-9999	-9999	-9999	-9999	-9999	-9999	-9999	-9999	-9999	-9999	-9999	-9999	-9999	-9999	-9999	-9999	-9999	-9999	-9999	-9999	-9999	-9999	-9999	-9999	-9999	-9999	-9999	-9999	-9999	-9999	-9999	-9999	-9999	-9999	-9999	-9999	-9999	-9999	-9999	-9999	-9999	-9999	-9999	-9999	-9999	-9999	-9999	-9999	-9999	-9999	-9999	-9999	-9999	-9999	-9999	-9999	-9999	-9999	-9999	-9999	-9999	-9999	-9999	-9999	-9999	-9999	-9999	-9999	-9999	-9999	-9999	-9999	-9999	-9999	-9999	-9999	-9999	-9999	-9999	-9999	-9999	-9999	-9999	-9999	-9999	-9999	-9999	-9999	-9999	1180	1154	1091	1062	1041	1021	984	959	927	885	842	824	810	772	756	740	712	692	680	677	646	624	607	566	558	557	537	488	479	491	582	619	636	648	657	658	651	633	570	541	507	443	441	441	441	441	441	441	441	441	441	441	441	441	441	441	441	441	441	488	528	558	615	639	661	682	712	732	748	784	790	784	783	839	858	878	913	934	959	988	1030	1041	1067	1086	1143	1176	1214	1288	1320	1367	1419	1506	1507	1540	1643	1697	1724	1768	1816	1840	1854	1936	1985	2026	2085	2188	2240	2290	2299	2259	2220	2184	2119	2089	2063	2012	1996	1987	1955	1845	1806	1809	1743	1711	1662	1597	1503	1477	1469	1467	1477	1469	1459	1440	1435	1440	1467	1549	1589	1619	1662	1671	1689	1658	1625	1592	1541	1422	1358	1280	1220	1112	1075	1036	1032	1068	1109	1144	1216	1258	1321	1411	1438	1441	1440	1477	1483	1459	1383	1341	1290	1243	1146	1119	1121	1089	1139	1174	1176	1179	1153	1160	1213	1328	1380	1425	1488	1527	1565	1605	1609	1607	1605	1602	1584	1555	1524	1480	1479	1470	1447	1433	1404	1381	1365	1334	1323	1317	1329	1387	1400	1419	1420	1423	1390	1348	1307	1250	1145	1175	1206	1274	1320	1342	1358	1400	1417	1454	1483	1485	1476	1468	1498	1508	1537	1556	1545	1570	1598	1601	1610	1611	1612	1571	1561
-9999	-9999	-9999	-9999	-9999	-9999	-9999	-9999	-9999	-9999	-9999	-9999	-9999	-9999	-9999	-9999	-9999	-9999	-9999	-9999	-9999	-9999	-9999	-9999	-9999	-9999	-9999	-9999	-9999	-9999	-9999	-9999	-9999	-9999	-9999	-9999	-9999	-9999	-9999	-9999	-9999	-9999	-9999	-9999	-9999	-9999	-9999	-9999	-9999	-9999	-9999	-9999	-9999	-9999	-9999	-9999	-9999	-9999	-9999	-9999	-9999	-9999	-9999	-9999	-9999	-9999	-9999	-9999	-9999	-9999	-9999	-9999	-9999	-9999	-9999	-9999	-9999	-9999	-9999	-9999	-9999	-9999	-9999	-9999	-9999	-9999	-9999	-9999	-9999	-9999	-9999	-9999	-9999	-9999	-9999	-9999	-9999	-9999	-9999	-9999	-9999	-9999	-9999	-9999	-9999	-9999	-9999	-9999	-9999	-9999	-9999	-9999	-9999	-9999	-9999	-9999	-9999	-9999	-9999	-9999	-9999	-9999	-9999	-9999	-9999	-9999	-9999	-9999	-9999	-9999	-9999	-9999	-9999	-9999	-9999	-9999	-9999	-9999	-9999	-9999	-9999	-9999	-9999	-9999	-9999	-9999	-9999	-9999	-9999	-9999	-9999	-9999	-9999	-9999	-9999	-9999	-9999	-9999	-9999	-9999	-9999	-9999	-9999	-9999	-9999	-9999	-9999	-9999	-9999	-9999	-9999	-9999	-9999	-9999	-9999	-9999	-9999	-9999	-9999	-9999	-9999	-9999	-9999	-9999	-9999	-9999	-9999	-9999	-9999	-9999	-9999	-9999	-9999	-9999	-9999	-9999	-9999	-9999	-9999	-9999	-9999	-9999	-9999	-9999	-9999	-9999	-9999	-9999	-9999	-9999	-9999	-9999	-9999	-9999	-9999	-9999	-9999	-9999	1118	1091	1065	1048	1006	974	940	889	871	846	819	792	762	740	708	693	681	673	645	622	609	572	562	559	548	496	484	482	570	614	621	632	646	640	633	582	558	537	505	441	441	441	441	441	441	441	441	441	441	441	441	441	441	441	441	441	441	492	533	561	613	635	661	681	701	721	740	762	760	767	799	836	856	877	921	945	971	999	1040	1067	1097	1122	1143	1169	1194	1266	1300	1346	1438	1485	1525	1571	1662	1707	1753	1799	1909	1969	2000	2012	2035	2053	2073	2175	2216	2264	2251	2223	2188	2144	2083	2058	2029	1972	1949	1941	1915	1818	1777	1727	1661	1638	1612	1574	1482	1465	1454	1443	1444	1444	1440	1440	1448	1473	1543	1584	1623	1657	1705	1708	1698	1668	1643	1602	1557	1445	1376	1291	1221	1114	1078	1041	1012	1058	1110	1147	1218	1247	1303	1380	1400	1401	1399	1411	1443	1457	1404	1364	1317	1255	1161	1111	1081	1069	1110	1131	1122	1114	1118	1172	1285	1328	1373	1421	1493	1532	1566	1580	1585	1584	1582	1589	1578	1555	1479	1465	1449	1440	1427	1412	1388	1361	1337	1319	1289	1293	1295	1315	1329	1343	1344	1347	1350	1310	1286	1224	1124	1148	1174	1257	1301	1330	1342	1384	1405	1437	1444	1455	1443	1430	1462	1488	1501	1468	1453	1447	1522	1540	1546	1555	1559	1547	1519
-9999	-9999	-9999	-9999	-9999	-9999	-9999	-9999	-9999	-9999	-9999	-9999	-9999	-9999	-9999	-9999	-9999	-9999	-9999	-9999	-9999	-9999	-9999	-9999	-9999	-9999	-9999	-9999	-9999	-9999	-9999	-9999	-9999	-9999	-9999	-9999	-9999	-9999	-9999	-9999	-9999	-9999	-9999	-9999	-9999	-9999	-9999	-9999	-9999	-9999	-9999	-9999	-9999	-9999	-9999	-9999	-9999	-9999	-9999	-9999	-9999	-9999	-9999	-9999	-9999	-9999	-9999	-9999	-9999	-9999	-9999	-9999	-9999	-9999	-9999	-9999	-9999	-9999	-9999	-9999	-9999	-9999	-9999	-9999	-9999	-9999	-9999	-9999	-9999	-9999	-9999	-9999	-9999	-9999	-9999	-9999	-9999	-9999	-9999	-9999	-9999	-9999	-9999	-9999	-9999	-9999	-9999	-9999	-9999	-9999	-9999	-9999	-9999	-9999	-9999	-9999	-9999	-9999	-9999	-9999	-9999	-9999	-9999	-9999	-9999	-9999	-9999	-9999	-9999	-9999	-9999	-9999	-9999	-9999	-9999	-9999	-9999	-9999	-9999	-9999	-9999	-9999	-9999	-9999	-9999	-9999	-9999	-9999	-9999	-9999	-9999	-9999	-9999	-9999	-9999	-9999	-9999	-9999	-9999	-9999	-9999	-9999	-9999	-9999	-9999	-9999	-9999	-9999	-9999	-9999	-9999	-9999	-9999	-9999	-9999	-9999	-9999	-9999	-9999	-9999	-9999	-9999	-9999	-9999	-9999	-9999	-9999	-9999	-9999	-9999	-9999	-9999	-9999	-9999	-9999	-9999	-9999	-9999	-9999	-9999	-9999	-9999	-9999	-9999	-9999	-9999	-9999	-9999	-9999	-9999	-9999	-9999	-9999	-9999	-9999	-9999	-9999	-9999	1145	1117	1084	1041	1013	982	954	891	873	849	811	797	773	747	712	699	690	678	644	629	616	578	564	559	555	502	480	482	551	605	617	622	637	629	622	578	540	522	497	441	441	441	441	441	441	441	441	441	441	441	441	441	441	441	441	441	455	513	545	568	611	647	665	673	685	708	724	736	754	776	803	833	855	879	918	945	974	1003	1043	1075	1106	1162	1193	1229	1265	1306	1323	1323	1403	1450	1493	1540	1637	1703	1762	1864	1921	1983	2033	2074	2059	2044	2082	2140	2193	2213	2165	2158	2144	2076	2055	2034	2004	1943	1914	1896	1878	1803	1759	1722	1647	1626	1629	1645	1510	1473	1453	1464	1478	1489	1515	1475	1491	1527	1611	1639	1659	1689	1705	1698	1681	1647	1626	1598	1557	1454	1384	1318	1189	1139	1088	1042	1012	1060	1102	1172	1203	1228	1274	1352	1366	1368	1365	1391	1423	1450	1412	1370	1332	1277	1174	1122	1091	1014	1030	1030	1069	1074	1129	1185	1290	1336	1386	1438	1518	1545	1559	1567	1571	1571	1570	1553	1543	1524	1447	1423	1418	1399	1395	1385	1364	1317	1299	1300	1269	1272	1278	1293	1298	1303	1308	1309	1319	1293	1238	1178	1093	1102	1138	1220	1276	1307	1315	1357	1386	1406	1412	1412	1413	1399	1425	1447	1455	1431	1417	1414	1413	1422	1439	1441	1459	1466	1488
-9999	-9999	-9999	-9999	-9999	-9999	-9999	-9999	-9999	-9999	-9999	-9999	-9999	-9999	-9999	-9999	-9999	-9999	-9999	-9999	-9999	-9999	-9999	-9999	-9999	-9999	-9999	-9999	-9999	-9999	-9999	-9999	-9999	-9999	-9999	-9999	-9999	-9999	-9999	-9999	-9999	-9999	-9999	-9999	-9999	-9999	-9999	-9999	-9999	-9999	-9999	-9999	-9999	-9999	-9999	-9999	-9999	-9999	-9999	-9999	-9999	-9999	-9999	-9999	-9999	-9999	-9999	-9999	-9999	-9999	-9999	-9999	-9999	-9999	-9999	-9999	-9999	-9999	-9999	-9999	-9999	-9999	-9999	-9999	-9999	-9999	-9999	-9999	-9999	-9999	-9999	-9999	-9999	-9999	-9999	-9999	-9999	-9999	-9999	-9999	-9999	-9999	-9999	-9999	-9999	-9999	-9999	-9999	-9999	-9999	-9999	-9999	-9999	-9999	-9999	-9999	-9999	-9999	-9999	-9999	-9999	-9999	-9999	-9999	-9999	-9999	-9999	-9999	-9999	-9999	-9999	-9999	-9999	-9999	-9999	-9999	-9999	-9999	-9999	-9999	-9999	-9999	-9999	-9999	-9999	-9999	-9999	-9999	-9999	-9999	-9999	-9999	-9999	-9999	-9999	-9999	-9999	-9999	-9999	-9999	-9999	-9999	-9999	-9999	-9999	-9999	-9999	-9999	-9999	-9999	-9999	-9999	-9999	-9999	-9999	-9999	-9999	-9999	-9999	-9999	-9999	-9999	-9999	-9999	-9999	-9999	-9999	-9999	-9999	-9999	-9999	-9999	-9999	-9999	-9999	-9999	-9999	-9999	-9999	-9999	-9999	-9999	-9999	-9999	-9999	-9999	-9999	-9999	-9999	-9999	-9999	-9999	-9999	-9999	-9999	-9999	-9999	-9999	1178	1151	1125	1053	1012	984	961	899	874	854	809	793	778	754	713	705	698	665	647	630	620	583	569	558	544	514	477	481	532	586	613	611	629	612	607	569	533	517	488	441	441	441	441	441	441	441	441	441	441	441	441	441	441	441	441	441	460	524	553	577	602	634	645	663	673	689	701	742	757	774	801	831	854	873	915	939	972	1005	1051	1081	1108	1172	1207	1242	1281	1355	1388	1414	1470	1509	1555	1614	1701	1710	1761	1872	1922	1973	2036	2122	2083	2052	2081	2137	2189	2193	2145	2141	2128	2079	2026	1990	1964	1900	1875	1856	1824	1794	1753	1708	1661	1636	1657	1642	1564	1507	1485	1500	1517	1544	1573	1609	1620	1636	1691	1703	1695	1681	1689	1667	1636	1615	1586	1568	1555	1457	1395	1330	1204	1150	1102	1055	995	1028	1069	1145	1173	1188	1223	1271	1334	1338	1332	1368	1404	1436	1411	1367	1326	1234	1192	1136	1101	1006	986	984	1012	1124	1173	1218	1301	1354	1393	1451	1509	1536	1548	1556	1558	1559	1557	1544	1516	1486	1436	1410	1394	1375	1324	1304	1299	1255	1233	1245	1255	1252	1265	1275	1278	1275	1280	1286	1285	1280	1243	1119	1078	1087	1129	1196	1218	1232	1271	1309	1329	1335	1379	1376	1370	1360	1389	1398	1401	1387	1372	1382	1376	1379	1385	1386	1407	1424	1424
-9999	-9999	-9999	-9999	-9999	-9999	-9999	-9999	-9999	-9999	-9999	-9999	-9999	-9999	-9999	-9999	-9999	-9999	-9999	-9999	-9999	-9999	-9999	-9999	-9999	-9999	-9999	-9999	-9999	-9999	-9999	-9999	-9999	-9999	-9999	-9999	-9999	-9999	-9999	-9999	-9999	-9999	-9999	-9999	-9999	-9999	-9999	-9999	-9999	-9999	-9999	-9999	-9999	-9999	-9999	-9999	-9999	-9999	-9999	-9999	-9999	-9999	-9999	-9999	-9999	-9999	-9999	-9999	-9999	-9999	-9999	-9999	-9999	-9999	-9999	-9999	-9999	-9999	-9999	-9999	-9999	-9999	-9999	-9999	-9999	-9999	-9999	-9999	-9999	-9999	-9999	-9999	-9999	-9999	-9999	-9999	-9999	-9999	-9999	-9999	-9999	-9999	-9999	-9999	-9999	-9999	-9999	-9999	-9999	-9999	-9999	-9999	-9999	-9999	-9999	-9999	-9999	-9999	-9999	-9999	-9999	-9999	-9999	-9999	-9999	-9999	-9999	-9999	-9999	-9999	-9999	-9999	-9999	-9999	-9999	-9999	-9999	-9999	-9999	-9999	-9999	-9999	-9999	-9999	-9999	-9999	-9999	-9999	-9999	-9999	-9999	-9999	-9999	-9999	-9999	-9999	-9999	-9999	-9999	-9999	-9999	-9999	-9999	-9999	-9999	-9999	-9999	-9999	-9999	-9999	-9999	-9999	-9999	-9999	-9999	-9999	-9999	-9999	-9999	-9999	-9999	-9999	-9999	-9999	-9999	-9999	-9999	-9999	-9999	-9999	-9999	-9999	-9999	-9999	-9999	-9999	-9999	-9999	-9999	-9999	-9999	-9999	-9999	-9999	-9999	-9999	-9999	-9999	-9999	-9999	-9999	-9999	-9999	-9999	-9999	-9999	-9999	-9999	1189	1162	1137	1070	1028	989	960	903	882	863	814	787	773	754	718	708	698	664	645	628	614	584	572	563	549	517	484	471	498	543	597	601	609	618	592	551	525	520	450	441	441	441	441	441	441	441	441	441	441	441	441	441	441	441	441	441	466	520	549	578	606	621	648	676	686	703	708	730	741	756	784	803	823	850	911	925	973	1026	1057	1089	1117	1179	1219	1255	1337	1377	1421	1458	1532	1562	1605	1645	1743	1793	1844	1949	1981	2029	2075	2170	2121	2075	2089	2138	2187	2180	2141	2149	2133	2072	2026	1991	1965	1901	1872	1852	1790	1787	1785	1777	1745	1723	1686	1693	1631	1551	1542	1554	1556	1581	1641	1662	1677	1693	1706	1705	1677	1628	1618	1595	1557	1524	1508	1485	1529	1431	1379	1333	1220	1164	1113	1067	978	1011	1045	1119	1152	1167	1198	1248	1260	1265	1298	1317	1342	1377	1409	1361	1308	1218	1170	1129	1100	1010	966	966	1067	1116	1169	1202	1295	1324	1342	1399	1444	1480	1498	1529	1546	1545	1541	1530	1505	1468	1419	1389	1367	1346	1304	1279	1265	1227	1204	1208	1210	1221	1227	1223	1241	1243	1235	1260	1254	1244	1236	1117	1070	1079	1119	1154	1182	1217	1247	1282	1300	1302	1311	1318	1312	1312	1320	1314	1307	1341	1333	1342	1328	1330	1329	1332	1341	1369	1370
-9999	-9999	-9999	-9999	-9999	-9999	-9999	-9999	-9999	-9999	-9999	-9999	-9999	-9999	-9999	-9999	-9999	-9999	-9999	-9999	-9999	-9999	-9999	-9999	-9999	-9999	-9999	-9999	-9999	-9999	-9999	-9999	-9999	-9999	-9999	-9999	-9999	-9999	-9999	-9999	-9999	-9999	-9999	-9999	-9999	-9999	-9999	-9999	-9999	-9999	-9999	-9999	-9999	-9999	-9999	-9999	-9999	-9999	-9999	-9999	-9999	-9999	-9999	-9999	-9999	-9999	-9999	-9999	-9999	-9999	-9999	-9999	-9999	-9999	-9999	-9999	-9999	-9999	-9999	-9999	-9999	-9999	-9999	-9999	-9999	-9999	-9999	-9999	-9999	-9999	-9999	-9999	-9999	-9999	-9999	-9999	-9999	-9999	-9999	-9999	-9999	-9999	-9999	-9999	-9999	-9999	-9999	-9999	-9999	-9999	-9999	-9999	-9999	-9999	-9999	-9999	-9999	-9999	-9999	-9999	-9999	-9999	-9999	-9999	-9999	-9999	-9999	-9999	-9999	-9999	-9999	-9999	-9999	-9999	-9999	-9999	-9999	-9999	-9999	-9999	-9999	-9999	-9999	-9999	-9999	-9999	-9999	-9999	-9999	-9999	-9999	-9999	-9999	-9999	-9999	-9999	-9999	-9999	-9999	-9999	-9999	-9999	-9999	-9999	-9999	-9999	-9999	-9999	-9999	-9999	-9999	-9999	-9999	-9999	-9999	-9999	-9999	-9999	-9999	-9999	-9999	-9999	-9999	-9999	-9999	-9999	-9999	-9999	-9999	-9999	-9999	-9999	-9999	-9999	-9999	-9999	-9999	-9999	-9999	-9999	-9999	-9999	-9999	-9999	-9999	-9999	-9999	-9999	-9999	-9999	-9999	-9999	-9999	-9999	-9999	-9999	-9999	1220	1200	1173	1145	1083	1042	999	927	898	871	859	809	790	768	748	726	715	701	664	641	624	609	585	574	567	544	524	498	475	485	529	578	590	575	574	571	522	511	508	472	441	441	441	441	441	441	441	441	441	441	441	441	441	441	441	441	441	458	496	518	562	628	649	663	685	696	701	715	740	755	773	801	820	842	862	913	941	978	1027	1059	1094	1122	1194	1236	1276	1345	1387	1431	1466	1552	1595	1641	1733	1777	1830	1878	1971	2003	2049	2148	2184	2189	2161	2133	2132	2143	2145	2155	2148	2101	2047	2022	1986	1968	1910	1885	1859	1820	1828	1828	1821	1770	1754	1752	1761	1783	1763	1699	1636	1589	1608	1672	1686	1703	1718	1703	1696	1663	1596	1578	1558	1529	1486	1471	1449	1422	1358	1303	1261	1191	1154	1120	1035	982	986	1025	1104	1125	1148	1170	1216	1232	1239	1268	1295	1318	1343	1371	1361	1314	1207	1162	1123	1077	990	954	947	1053	1099	1149	1190	1263	1275	1284	1369	1412	1444	1464	1498	1500	1498	1499	1499	1487	1461	1392	1374	1346	1294	1273	1253	1225	1200	1175	1174	1175	1209	1201	1193	1211	1227	1222	1212	1201	1194	1191	1141	1068	1064	1087	1134	1167	1191	1230	1263	1277	1274	1280	1293	1295	1292	1293	1286	1274	1268	1266	1261	1258	1257	1242	1276	1277	1301	1306
-9999	-9999	-9999	-9999	-9999	-9999	-9999	-9999	-9999	-9999	-9999	-9999	-9999	-9999	-9999	-9999	-9999	-9999	-9999	-9999	-9999	-9999	-9999	-9999	-9999	-9999	-9999	-9999	-9999	-9999	-9999	-9999	-9999	-9999	-9999	-9999	-9999	-9999	-9999	-9999	-9999	-9999	-9999	-9999	-9999	-9999	-9999	-9999	-9999	-9999	-9999	-9999	-9999	-9999	-9999	-9999	-9999	-9999	-9999	-9999	-9999	-9999	-9999	-9999	-9999	-9999	-9999	-9999	-9999	-9999	-9999	-9999	-9999	-9999	-9999	-9999	-9999	-9999	-9999	-9999	-9999	-9999	-9999	-9999	-9999	-9999	-9999	-9999	-9999	-9999	-9999	-9999	-9999	-9999	-9999	-9999	-9999	-9999	-9999	-9999	-9999	-9999	-9999	-9999	-9999	-9999	-9999	-9999	-9999	-9999	-9999	-9999	-9999	-9999	-9999	-9999	-9999	-9999	-9999	-9999	-9999	-9999	-9999	-9999	-9999	-9999	-9999	-9999	-9999	-9999	-9999	-9999	-9999	-9999	-9999	-9999	-9999	-9999	-9999	-9999	-9999	-9999	-9999	-9999	-9999	-9999	-9999	-9999	-9999	-9999	-9999	-9999	-9999	-9999	-9999	-9999	-9999	-9999	-9999	-9999	-9999	-9999	-9999	-9999	-9999	-9999	-9999	-9999	-9999	-9999	-9999	-9999	-9999	-9999	-9999	-9999	-9999	-9999	-9999	-9999	-9999	-9999	-9999	-9999	-9999	-9999	-9999	-9999	-9999	-9999	-9999	-9999	-9999	-9999	-9999	-9999	-9999	-9999	-9999	-9999	-9999	-9999	-9999	-9999	-9999	-9999	-9999	-9999	-9999	-9999	-9999	-9999	-9999	-9999	-9999	-9999	-9999	1212	1204	1170	1153	1099	1057	1011	926	896	873	854	807	786	766	729	727	722	711	667	643	621	598	589	577	578	549	533	508	474	474	493	548	584	561	539	538	513	507	501	465	441	441	441	441	441	441	441	441	441	441	441	441	441	441	441	441	441	448	481	532	601	622	641	651	666	683	691	728	745	761	778	806	825	844	864	929	961	987	1028	1059	1092	1123	1197	1239	1283	1360	1404	1444	1490	1579	1619	1657	1754	1804	1838	1862	1921	1964	2019	2134	2191	2206	2174	2118	2109	2104	2100	2073	2056	2045	2003	2000	1961	1942	1926	1909	1886	1859	1873	1869	1856	1805	1787	1785	1796	1817	1803	1740	1667	1634	1654	1701	1716	1710	1693	1681	1673	1647	1566	1551	1530	1498	1453	1435	1410	1384	1330	1273	1222	1157	1126	1092	1013	985	953	982	1052	1079	1135	1165	1189	1202	1208	1235	1257	1280	1317	1332	1333	1305	1197	1146	1098	1053	949	905	932	1036	1082	1113	1169	1212	1221	1251	1350	1392	1416	1433	1459	1452	1455	1478	1480	1465	1450	1393	1352	1310	1235	1220	1203	1180	1167	1151	1148	1168	1177	1173	1170	1181	1201	1201	1193	1183	1175	1171	1140	1082	1032	1047	1078	1106	1141	1187	1240	1252	1247	1254	1259	1266	1262	1261	1260	1249	1238	1227	1219	1219	1211	1202	1193	1183	1193	1189
-9999	-9999	-9999	-9999	-9999	-9999	-9999	-9999	-9999	-9999	-9999	-9999	-9999	-9999	-9999	-9999	-9999	-9999	-9999	-9999	-9999	-9999	-9999	-9999	-9999	-9999	-9999	-9999	-9999	-9999	-9999	-9999	-9999	-9999	-9999	-9999	-9999	-9999	-9999	-9999	-9999	-9999	-9999	-9999	-9999	-9999	-9999	-9999	-9999	-9999	-9999	-9999	-9999	-9999	-9999	-9999	-9999	-9999	-9999	-9999	-9999	-9999	-9999	-9999	-9999	-9999	-9999	-9999	-9999	-9999	-9999	-9999	-9999	-9999	-9999	-9999	-9999	-9999	-9999	-9999	-9999	-9999	-9999	-9999	-9999	-9999	-9999	-9999	-9999	-9999	-9999	-9999	-9999	-9999	-9999	-9999	-9999	-9999	-9999	-9999	-9999	-9999	-9999	-9999	-9999	-9999	-9999	-9999	-9999	-9999	-9999	-9999	-9999	-9999	-9999	-9999	-9999	-9999	-9999	-9999	-9999	-9999	-9999	-9999	-9999	-9999	-9999	-9999	-9999	-9999	-9999	-9999	-9999	-9999	-9999	-9999	-9999	-9999	-9999	-9999	-9999	-9999	-9999	-9999	-9999	-9999	-9999	-9999	-9999	-9999	-9999	-9999	-9999	-9999	-9999	-9999	-9999	-9999	-9999	-9999	-9999	-9999	-9999	-9999	-9999	-9999	-9999	-9999	-9999	-9999	-9999	-9999	-9999	-9999	-9999	-9999	-9999	-9999	-9999	-9999	-9999	-9999	-9999	-9999	-9999	-9999	-9999	-9999	-9999	-9999	-9999	-9999	-9999	-9999	-9999	-9999	-9999	-9999	-9999	-9999	-9999	-9999	-9999	-9999	-9999	-9999	-9999	-9999	-9999	-9999	-9999	-9999	-9999	-9999	-9999	-9999	-9999	1211	1193	1171	1151	1107	1067	1021	931	896	870	851	804	781	762	724	725	728	715	670	643	621	592	584	580	584	567	553	535	486	473	464	512	569	550	530	518	511	490	480	467	441	441	441	441	441	441	441	441	441	441	441	441	441	441	441	441	441	447	494	540	594	611	626	634	671	689	695	738	758	770	771	808	826	843	899	929	963	985	1032	1064	1098	1166	1205	1248	1285	1364	1405	1445	1496	1577	1607	1634	1679	1703	1734	1775	1888	1939	1986	2131	2189	2203	2165	2100	2096	2086	2074	2047	2036	2034	2002	2000	1981	1938	1948	1938	1915	1893	1891	1884	1853	1833	1822	1822	1831	1852	1828	1743	1700	1677	1692	1734	1724	1678	1650	1609	1599	1590	1540	1509	1478	1436	1414	1400	1366	1345	1297	1245	1192	1120	1088	1052	1001	973	947	962	1030	1048	1074	1115	1128	1140	1140	1174	1217	1234	1259	1281	1300	1290	1196	1137	1093	979	932	889	907	999	1053	1074	1097	1130	1182	1220	1313	1341	1388	1397	1416	1407	1416	1451	1448	1438	1425	1386	1345	1301	1219	1194	1163	1142	1089	1080	1085	1092	1104	1105	1141	1149	1173	1179	1175	1166	1158	1152	1124	1085	1025	1017	1059	1093	1131	1161	1182	1186	1196	1197	1199	1199	1204	1234	1234	1222	1214	1202	1187	1183	1170	1161	1150	1139	1147	1138
-9999	-9999	-9999	-9999	-9999	-9999	-9999	-9999	-9999	-9999	-9999	-9999	-9999	-9999	-9999	-9999	-9999	-9999	-9999	-9999	-9999	-9999	-9999	-9999	-9999	-9999	-9999	-9999	-9999	-9999	-9999	-9999	-9999	-9999	-9999	-9999	-9999	-9999	-9999	-9999	-9999	-9999	-9999	-9999	-9999	-9999	-9999	-9999	-9999	-9999	-9999	-9999	-9999	-9999	-9999	-9999	-9999	-9999	-9999	-9999	-9999	-9999	-9999	-9999	-9999	-9999	-9999	-9999	-9999	-9999	-9999	-9999	-9999	-9999	-9999	-9999	-9999	-9999	-9999	-9999	-9999	-9999	-9999	-9999	-9999	-9999	-9999	-9999	-9999	-9999	-9999	-9999	-9999	-9999	-9999	-9999	-9999	-9999	-9999	-9999	-9999	-9999	-9999	-9999	-9999	-9999	-9999	-9999	-9999	-9999	-9999	-9999	-9999	-9999	-9999	-9999	-9999	-9999	-9999	-9999	-9999	-9999	-9999	-9999	-9999	-9999	-9999	-9999	-9999	-9999	-9999	-9999	-9999	-9999	-9999	-9999	-9999	-9999	-9999	-9999	-9999	-9999	-9999	-9999	-9999	-9999	-9999	-9999	-9999	-9999	-9999	-9999	-9999	-9999	-9999	-9999	-9999	-9999	-9999	-9999	-9999	-9999	-9999	-9999	-9999	-9999	-9999	-9999	-9999	-9999	-9999	-9999	-9999	-9999	-9999	-9999	-9999	-9999	-9999	-9999	-9999	-9999	-9999	-9999	-9999	-9999	-9999	-9999	-9999	-9999	-9999	-9999	-9999	-9999	-9999	-9999	-9999	-9999	-9999	-9999	-9999	-9999	-9999	-9999	-9999	-9999	-9999	-9999	-9999	-9999	-9999	-9999	-9999	-9999	-9999	-9999	-9999	1211	1190	1160	1141	1105	1068	1021	941	906	868	844	806	778	761	718	723	730	717	672	641	619	588	583	581	586	572	559	545	506	497	480	463	510	512	501	473	480	482	458	453	441	441	441	441	441	441	441	441	441	441	441	441	441	441	441	441	441	453	502	544	581	595	614	636	679	683	703	744	765	777	785	800	823	842	899	928	953	971	1034	1068	1105	1184	1211	1252	1289	1367	1410	1451	1527	1552	1567	1589	1636	1678	1734	1841	1898	1958	2012	2115	2167	2178	2145	2076	2084	2080	2055	2030	2022	2020	1996	1994	1985	1965	1959	1939	1927	1889	1880	1875	1873	1891	1915	1920	1937	1930	1859	1780	1751	1736	1743	1775	1725	1658	1584	1566	1561	1549	1520	1495	1470	1384	1350	1328	1305	1257	1231	1188	1123	1083	1044	1010	965	951	934	934	1002	1022	1046	1094	1105	1114	1103	1139	1145	1156	1187	1186	1212	1232	1196	1137	1093	988	930	876	882	973	1014	1027	1082	1119	1163	1202	1291	1307	1312	1327	1324	1331	1365	1381	1380	1408	1382	1368	1338	1297	1215	1181	1139	1111	1056	1041	1044	1061	1075	1079	1078	1101	1128	1131	1128	1120	1116	1130	1096	1069	1009	1001	1036	1075	1108	1132	1145	1154	1167	1169	1169	1167	1166	1167	1161	1164	1156	1144	1126	1144	1138	1125	1099	1088	1089	1094
-9999	-9999	-9999	-9999	-9999	-9999	-9999	-9999	-9999	-9999	-9999	-9999	-9999	-9999	-9999	-9999	-9999	-9999	-9999	-9999	-9999	-9999	-9999	-9999	-9999	-9999	-9999	-9999	-9999	-9999	-9999	-9999	-9999	-9999	-9999	-9999	-9999	-9999	-9999	-9999	-9999	-9999	-9999	-9999	-9999	-9999	-9999	-9999	-9999	-9999	-9999	-9999	-9999	-9999	-9999	-9999	-9999	-9999	-9999	-9999	-9999	-9999	-9999	-9999	-9999	-9999	-9999	-9999	-9999	-9999	-9999	-9999	-9999	-9999	-9999	-9999	-9999	-9999	-9999	-9999	-9999	-9999	-9999	-9999	-9999	-9999	-9999	-9999	-9999	-9999	-9999	-9999	-9999	-9999	-9999	-9999	-9999	-9999	-9999	-9999	-9999	-9999	-9999	-9999	-9999	-9999	-9999	-9999	-9999	-9999	-9999	-9999	-9999	-9999	-9999	-9999	-9999	-9999	-9999	-9999	-9999	-9999	-9999	-9999	-9999	-9999	-9999	-9999	-9999	-9999	-9999	-9999	-9999	-9999	-9999	-9999	-9999	-9999	-9999	-9999	-9999	-9999	-9999	-9999	-9999	-9999	-9999	-9999	-9999	-9999	-9999	-9999	-9999	-9999	-9999	-9999	-9999	-9999	-9999	-9999	-9999	-9999	-9999	-9999	-9999	-9999	-9999	-9999	-9999	-9999	-9999	-9999	-9999	-9999	-9999	-9999	-9999	-9999	-9999	-9999	-9999	-9999	-9999	-9999	-9999	-9999	-9999	-9999	-9999	-9999	-9999	-9999	-9999	-9999	-9999	-9999	-9999	-9999	-9999	-9999	-9999	-9999	-9999	-9999	-9999	-9999	-9999	-9999	-9999	-9999	-9999	-9999	-9999	-9999	-9999	-9999	-9999	1203	1180	1155	1126	1102	1070	1024	943	912	870	830	805	777	759	714	720	719	711	681	655	625	587	579	578	587	575	562	550	521	509	492	472	469	477	478	461	467	445	441	441	441	441	441	441	441	441	441	441	441	441	441	441	441	441	441	441	441	456	514	551	583	616	639	665	672	685	711	748	774	788	801	813	826	839	889	927	954	973	1035	1067	1104	1181	1214	1254	1288	1364	1389	1404	1499	1505	1514	1550	1642	1695	1750	1838	1892	1932	1983	2097	2148	2174	2114	2070	2048	2042	2025	2021	2012	1995	1990	1985	1980	1962	1946	1930	1921	1886	1875	1876	1903	1942	1982	1996	1978	1953	1928	1893	1880	1879	1875	1805	1722	1636	1553	1534	1527	1514	1489	1474	1452	1370	1324	1282	1271	1211	1199	1153	1083	1093	1100	1094	1027	993	963	944	962	983	1025	1054	1062	1067	1091	1103	1111	1122	1144	1148	1165	1182	1183	1133	1077	985	932	877	842	945	968	1005	1062	1099	1145	1198	1264	1273	1270	1273	1279	1314	1339	1347	1350	1343	1321	1308	1290	1261	1192	1171	1134	1063	1029	1007	1002	1034	1055	1047	1040	1077	1101	1104	1103	1095	1088	1076	1035	1017	975	956	999	1049	1076	1096	1105	1119	1139	1147	1132	1125	1125	1128	1126	1126	1121	1108	1100	1073	1068	1054	1021	995	993	1067
-9999	-9999	-9999	-9999	-9999	-9999	-9999	-9999	-9999	-9999	-9999	-9999	-9999	-9999	-9999	-9999	-9999	-9999	-9999	-9999	-9999	-9999	-9999	-9999	-9999	-9999	-9999	-9999	-9999	-9999	-9999	-9999	-9999	-9999	-9999	-9999	-9999	-9999	-9999	-9999	-9999	-9999	-9999	-9999	-9999	-9999	-9999	-9999	-9999	-9999	-9999	-9999	-9999	-9999	-9999	-9999	-9999	-9999	-9999	-9999	-9999	-9999	-9999	-9999	-9999	-9999	-9999	-9999	-9999	-9999	-9999	-9999	-9999	-9999	-9999	-9999	-9999	-9999	-9999	-9999	-9999	-9999	-9999	-9999	-9999	-9999	-9999	-9999	-9999	-9999	-9999	-9999	-9999	-9999	-9999	-9999	-9999	-9999	-9999	-9999	-9999	-9999	-9999	-9999	-9999	-9999	-9999	-9999	-9999	-9999	-9999	-9999	-9999	-9999	-9999	-9999	-9999	-9999	-9999	-9999	-9999	-9999	-9999	-9999	-9999	-9999	-9999	-9999	-9999	-9999	-9999	-9999	-9999	-9999	-9999	-9999	-9999	-9999	-9999	-9999	-9999	-9999	-9999	-9999	-9999	-9999	-9999	-9999	-9999	-9999	-9999	-9999	-9999	-9999	-9999	-9999	-9999	-9999	-9999	-9999	-9999	-9999	-9999	-9999	-9999	-9999	-9999	-9999	-9999	-9999	-9999	-9999	-9999	-9999	-9999	-9999	-9999	-9999	-9999	-9999	-9999	-9999	-9999	-9999	-9999	-9999	-9999	-9999	-9999	-9999	-9999	-9999	-9999	-9999	-9999	-9999	-9999	-9999	-9999	-9999	-9999	-9999	-9999	-9999	-9999	-9999	-9999	-9999	-9999	-9999	-9999	-9999	-9999	-9999	-9999	-9999	1245	1198	1169	1147	1108	1095	1065	1026	945	911	878	818	795	779	761	710	714	713	698	678	655	632	590	582	579	578	571	564	559	538	517	506	489	451	453	456	447	442	441	441	441	441	441	441	441	441	441	441	441	441	441	441	441	441	441	441	441	441	460	514	549	594	615	635	666	686	702	729	771	785	798	826	841	845	856	880	926	964	1003	1033	1061	1095	1169	1201	1238	1274	1330	1336	1345	1401	1443	1482	1527	1607	1649	1726	1807	1856	1905	1958	2080	2133	2173	2110	2068	2045	2035	2018	2019	2014	1996	1989	1969	1953	1933	1928	1920	1900	1889	1885	1904	1945	1991	2019	1986	1974	1957	1938	1926	1912	1898	1889	1789	1720	1657	1560	1531	1498	1480	1433	1442	1425	1349	1305	1265	1228	1192	1160	1123	1129	1147	1151	1131	1077	1053	1014	933	908	935	976	996	992	1014	1046	1068	1070	1089	1099	1111	1129	1157	1153	1112	1063	967	920	877	829	868	914	947	1015	1068	1107	1189	1231	1231	1223	1224	1256	1286	1297	1307	1309	1307	1296	1284	1258	1236	1178	1149	1111	1038	997	950	929	1006	1017	1012	1016	1050	1069	1076	1073	1070	1062	1036	1012	993	950	943	981	991	1015	1032	1051	1060	1071	1072	1101	1094	1089	1090	1093	1092	1085	1073	1068	1048	1034	1014	980	962	952	984
-9999	-9999	-9999	-9999	-9999	-9999	-9999	-9999	-9999	-9999	-9999	-9999	-9999	-9999	-9999	-9999	-9999	-9999	-9999	-9999	-9999	-9999	-9999	-9999	-9999	-9999	-9999	-9999	-9999	-9999	-9999	-9999	-9999	-9999	-9999	-9999	-9999	-9999	-9999	-9999	-9999	-9999	-9999	-9999	-9999	-9999	-9999	-9999	-9999	-9999	-9999	-9999	-9999	-9999	-9999	-9999	-9999	-9999	-9999	-9999	-9999	-9999	-9999	-9999	-9999	-9999	-9999	-9999	-9999	-9999	-9999	-9999	-9999	-9999	-9999	-9999	-9999	-9999	-9999	-9999	-9999	-9999	-9999	-9999	-9999	-9999	-9999	-9999	-9999	-9999	-9999	-9999	-9999	-9999	-9999	-9999	-9999	-9999	-9999	-9999	-9999	-9999	-9999	-9999	-9999	-9999	-9999	-9999	-9999	-9999	-9999	-9999	-9999	-9999	-9999	-9999	-9999	-9999	-9999	-9999	-9999	-9999	-9999	-9999	-9999	-9999	-9999	-9999	-9999	-9999	-9999	-9999	-9999	-9999	-9999	-9999	-9999	-9999	-9999	-9999	-9999	-9999	-9999	-9999	-9999	-9999	-9999	-9999	-9999	-9999	-9999	-9999	-9999	-9999	-9999	-9999	-9999	-9999	-9999	-9999	-9999	-9999	-9999	-9999	-9999	-9999	-9999	-9999	-9999	-9999	-9999	-9999	-9999	-9999	-9999	-9999	-9999	-9999	-9999	-9999	-9999	-9999	-9999	-9999	-9999	-9999	-9999	-9999	-9999	-9999	-9999	-9999	-9999	-9999	-9999	-9999	-9999	-9999	-9999	-9999	-9999	-9999	-9999	-9999	-9999	-9999	-9999	-9999	-9999	-9999	-9999	-9999	-9999	-9999	-9999	-9999	1241	1194	1171	1140	1112	1095	1068	1042	966	923	891	821	787	784	764	707	707	705	694	676	655	632	592	585	580	573	567	563	562	551	532	516	482	449	444	448	441	441	441	441	441	441	441	441	441	441	441	441	441	441	441	441	441	441	441	441	441	441	471	519	548	604	623	641	665	688	711	733	777	782	800	840	852	872	893	944	948	940	987	1023	1050	1082	1153	1181	1214	1268	1275	1301	1341	1416	1462	1504	1584	1621	1657	1695	1792	1835	1880	1929	2035	2108	2172	2106	2063	2053	2040	2017	2014	2011	1993	1977	1961	1950	1934	1926	1925	1955	1954	1959	1979	1993	1991	1977	1961	1946	1941	1927	1913	1895	1877	1834	1787	1732	1682	1576	1535	1498	1435	1411	1399	1382	1309	1259	1223	1184	1163	1148	1142	1192	1205	1208	1186	1124	1091	1054	975	916	918	938	958	951	933	977	977	995	1004	1021	1072	1083	1102	1111	1089	1048	941	906	878	813	844	876	910	1000	1037	1081	1145	1157	1155	1142	1179	1200	1256	1253	1268	1272	1268	1259	1247	1225	1210	1169	1141	1110	1044	995	942	904	930	944	944	957	977	1001	1004	1043	1042	1035	1009	994	972	924	924	955	960	970	998	1015	1028	1033	1037	1040	1039	1029	1027	1020	1017	1050	1046	1033	1018	1003	985	932	915	910	948
-9999	-9999	-9999	-9999	-9999	-9999	-9999	-9999	-9999	-9999	-9999	-9999	-9999	-9999	-9999	-9999	-9999	-9999	-9999	-9999	-9999	-9999	-9999	-9999	-9999	-9999	-9999	-9999	-9999	-9999	-9999	-9999	-9999	-9999	-9999	-9999	-9999	-9999	-9999	-9999	-9999	-9999	-9999	-9999	-9999	-9999	-9999	-9999	-9999	-9999	-9999	-9999	-9999	-9999	-9999	-9999	-9999	-9999	-9999	-9999	-9999	-9999	-9999	-9999	-9999	-9999	-9999	-9999	-9999	-9999	-9999	-9999	-9999	-9999	-9999	-9999	-9999	-9999	-9999	-9999	-9999	-9999	-9999	-9999	-9999	-9999	-9999	-9999	-9999	-9999	-9999	-9999	-9999	-9999	-9999	-9999	-9999	-9999	-9999	-9999	-9999	-9999	-9999	-9999	-9999	-9999	-9999	-9999	-9999	-9999	-9999	-9999	-9999	-9999	-9999	-9999	-9999	-9999	-9999	-9999	-9999	-9999	-9999	-9999	-9999	-9999	-9999	-9999	-9999	-9999	-9999	-9999	-9999	-9999	-9999	-9999	-9999	-9999	-9999	-9999	-9999	-9999	-9999	-9999	-9999	-9999	-9999	-9999	-9999	-9999	-9999	-9999	-9999	-9999	-9999	-9999	-9999	-9999	-9999	-9999	-9999	-9999	-9999	-9999	-9999	-9999	-9999	-9999	-9999	-9999	-9999	-9999	-9999	-9999	-9999	-9999	-9999	-9999	-9999	-9999	-9999	-9999	-9999	-9999	-9999	-9999	-9999	-9999	-9999	-9999	-9999	-9999	-9999	-9999	-9999	-9999	-9999	-9999	-9999	-9999	-9999	-9999	-9999	-9999	-9999	-9999	-9999	-9999	-9999	-9999	-9999	-9999	-9999	-9999	-9999	-9999	1213	1188	1172	1142	1109	1094	1071	1015	973	935	900	820	790	765	742	706	698	694	677	671	651	630	593	585	576	568	564	559	558	546	528	510	475	445	441	441	441	441	441	441	441	441	441	441	441	441	441	441	441	441	441	441	441	441	441	441	441	442	473	513	593	618	637	657	679	687	710	730	787	788	810	849	850	872	900	952	974	979	1008	1019	1028	1055	1110	1131	1154	1238	1259	1315	1367	1420	1471	1515	1605	1649	1693	1727	1804	1838	1885	1991	2055	2115	2159	2109	2076	2066	2055	2033	2018	2021	2000	1970	1953	1949	1939	1944	1953	1997	1999	2009	1999	1959	1958	1951	1898	1892	1880	1870	1854	1831	1837	1797	1760	1699	1650	1562	1519	1484	1415	1387	1374	1366	1291	1242	1202	1197	1210	1222	1239	1291	1315	1331	1207	1168	1128	1093	995	937	907	895	911	920	912	947	957	960	960	982	997	1005	1025	1026	1021	1003	959	913	867	795	810	851	894	980	994	1031	1106	1118	1115	1100	1154	1162	1168	1172	1180	1182	1182	1182	1179	1194	1167	1147	1123	1098	1043	995	936	886	902	917	920	931	940	953	962	975	975	973	954	941	923	907	890	909	916	937	959	976	986	999	1003	1005	1014	1011	1004	1000	989	979	970	959	944	927	906	883	868	869	898
-9999	-9999	-9999	-9999	-9999	-9999	-9999	-9999	-9999	-9999	-9999	-9999	-9999	-9999	-9999	-9999	-9999	-9999	-9999	-9999	-9999	-9999	-9999	-9999	-9999	-9999	-9999	-9999	-9999	-9999	-9999	-9999	-9999	-9999	-9999	-9999	-9999	-9999	-9999	-9999	-9999	-9999	-9999	-9999	-9999	-9999	-9999	-9999	-9999	-9999	-9999	-9999	-9999	-9999	-9999	-9999	-9999	-9999	-9999	-9999	-9999	-9999	-9999	-9999	-9999	-9999	-9999	-9999	-9999	-9999	-9999	-9999	-9999	-9999	-9999	-9999	-9999	-9999	-9999	-9999	-9999	-9999	-9999	-9999	-9999	-9999	-9999	-9999	-9999	-9999	-9999	-9999	-9999	-9999	-9999	-9999	-9999	-9999	-9999	-9999	-9999	-9999	-9999	-9999	-9999	-9999	-9999	-9999	-9999	-9999	-9999	-9999	-9999	-9999	-9999	-9999	-9999	-9999	-9999	-9999	-9999	-9999	-9999	-9999	-9999	-9999	-9999	-9999	-9999	-9999	-9999	-9999	-9999	-9999	-9999	-9999	-9999	-9999	-9999	-9999	-9999	-9999	-9999	-9999	-9999	-9999	-9999	-9999	-9999	-9999	-9999	-9999	-9999	-9999	-9999	-9999	-9999	-9999	-9999	-9999	-9999	-9999	-9999	-9999	-9999	-9999	-9999	-9999	-9999	-9999	-9999	-9999	-9999	-9999	-9999	-9999	-9999	-9999	-9999	-9999	-9999	-9999	-9999	-9999	-9999	-9999	-9999	-9999	-9999	-9999	-9999	-9999	-9999	-9999	-9999	-9999	-9999	-9999	-9999	-9999	-9999	-9999	-9999	-9999	-9999	-9999	-9999	-9999	-9999	-9999	-9999	-9999	-9999	-9999	-9999	-9999	1213	1188	1165	1147	1099	1091	1071	1015	975	939	897	816	794	766	717	706	700	691	669	656	639	607	591	580	570	561	560	559	553	536	523	506	465	441	441	441	441	441	441	441	441	441	441	441	441	441	441	441	441	441	441	441	441	441	441	441	441	441	469	514	599	624	642	661	708	726	745	768	780	793	804	849	860	880	928	959	984	1000	1050	1057	1073	1096	1146	1176	1198	1266	1303	1337	1377	1464	1484	1517	1602	1653	1704	1746	1834	1873	1914	2009	2065	2120	2164	2110	2079	2070	2065	2045	2037	2043	2009	1997	1972	1969	1950	1964	1991	2047	2046	2021	1957	1935	1911	1896	1866	1873	1863	1837	1821	1795	1762	1698	1672	1647	1598	1487	1456	1448	1393	1366	1355	1338	1268	1234	1231	1244	1251	1265	1283	1335	1367	1379	1297	1250	1207	1169	1069	1012	974	889	887	884	890	923	930	941	940	951	971	978	988	990	984	964	948	933	914	788	773	800	821	932	959	1000	1057	1064	1066	1059	1128	1131	1132	1130	1138	1136	1135	1143	1138	1131	1101	1081	1062	1048	1010	997	943	861	867	880	886	904	910	913	930	941	939	930	922	909	893	826	830	846	855	888	901	943	945	968	972	979	985	981	975	974	960	947	938	919	910	883	859	814	806	802	807
-9999	-9999	-9999	-9999	-9999	-9999	-9999	-9999	-9999	-9999	-9999	-9999	-9999	-9999	-9999	-9999	-9999	-9999	-9999	-9999	-9999	-9999	-9999	-9999	-9999	-9999	-9999	-9999	-9999	-9999	-9999	-9999	-9999	-9999	-9999	-9999	-9999	-9999	-9999	-9999	-9999	-9999	-9999	-9999	-9999	-9999	-9999	-9999	-9999	-9999	-9999	-9999	-9999	-9999	-9999	-9999	-9999	-9999	-9999	-9999	-9999	-9999	-9999	-9999	-9999	-9999	-9999	-9999	-9999	-9999	-9999	-9999	-9999	-9999	-9999	-9999	-9999	-9999	-9999	-9999	-9999	-9999	-9999	-9999	-9999	-9999	-9999	-9999	-9999	-9999	-9999	-9999	-9999	-9999	-9999	-9999	-9999	-9999	-9999	-9999	-9999	-9999	-9999	-9999	-9999	-9999	-9999	-9999	-9999	-9999	-9999	-9999	-9999	-9999	-9999	-9999	-9999	-9999	-9999	-9999	-9999	-9999	-9999	-9999	-9999	-9999	-9999	-9999	-9999	-9999	-9999	-9999	-9999	-9999	-9999	-9999	-9999	-9999	-9999	-9999	-9999	-9999	-9999	-9999	-9999	-9999	-9999	-9999	-9999	-9999	-9999	-9999	-9999	-9999	-9999	-9999	-9999	-9999	-9999	-9999	-9999	-9999	-9999	-9999	-9999	-9999	-9999	-9999	-9999	-9999	-9999	-9999	-9999	-9999	-9999	-9999	-9999	-9999	-9999	-9999	-9999	-9999	-9999	-9999	-9999	-9999	-9999	-9999	-9999	-9999	-9999	-9999	-9999	-9999	-9999	-9999	-9999	-9999	-9999	-9999	-9999	-9999	-9999	-9999	-9999	-9999	-9999	-9999	-9999	-9999	-9999	-9999	-9999	-9999	-9999	-9999	1218	1190	1166	1145	1097	1079	1060	995	959	923	894	824	791	764	716	707	697	686	666	649	633	601	588	578	567	556	554	552	539	524	506	494	458	441	441	441	441	441	441	441	441	441	441	441	441	441	441	441	441	441	441	441	441	441	441	441	441	441	468	515	601	625	644	660	706	729	754	782	783	794	813	858	868	885	929	946	973	1001	1058	1077	1100	1162	1185	1210	1237	1301	1342	1381	1455	1493	1509	1550	1616	1644	1687	1727	1819	1873	1926	2026	2079	2132	2171	2110	2085	2075	2075	2053	2046	2043	2020	2005	1993	2006	2019	2024	2081	2091	2051	2023	1930	1907	1870	1846	1835	1845	1841	1804	1784	1757	1729	1651	1630	1606	1521	1469	1426	1393	1358	1358	1355	1355	1353	1286	1294	1304	1298	1305	1330	1383	1412	1410	1334	1288	1244	1202	1108	1059	1021	970	957	935	898	867	873	913	928	931	941	959	972	973	962	943	933	925	918	809	756	759	816	872	916	940	958	950	960	1073	1100	1097	1097	1082	1091	1085	1083	1097	1092	1088	1063	1043	1026	1015	983	967	945	844	809	804	805	847	883	874	896	908	903	897	890	877	862	796	803	812	824	865	874	871	882	888	894	907	921	921	946	933	925	914	903	887	874	847	823	785	767	768	772
-9999	-9999	-9999	-9999	-9999	-9999	-9999	-9999	-9999	-9999	-9999	-9999	-9999	-9999	-9999	-9999	-9999	-9999	-9999	-9999	-9999	-9999	-9999	-9999	-9999	-9999	-9999	-9999	-9999	-9999	-9999	-9999	-9999	-9999	-9999	-9999	-9999	-9999	-9999	-9999	-9999	-9999	-9999	-9999	-9999	-9999	-9999	-9999	-9999	-9999	-9999	-9999	-9999	-9999	-9999	-9999	-9999	-9999	-9999	-9999	-9999	-9999	-9999	-9999	-9999	-9999	-9999	-9999	-9999	-9999	-9999	-9999	-9999	-9999	-9999	-9999	-9999	-9999	-9999	-9999	-9999	-9999	-9999	-9999	-9999	-9999	-9999	-9999	-9999	-9999	-9999	-9999	-9999	-9999	-9999	-9999	-9999	-9999	-9999	-9999	-9999	-9999	-9999	-9999	-9999	-9999	-9999	-9999	-9999	-9999	-9999	-9999	-9999	-9999	-9999	-9999	-9999	-9999	-9999	-9999	-9999	-9999	-9999	-9999	-9999	-9999	-9999	-9999	-9999	-9999	-9999	-9999	-9999	-9999	-9999	-9999	-9999	-9999	-9999	-9999	-9999	-9999	-9999	-9999	-9999	-9999	-9999	-9999	-9999	-9999	-9999	-9999	-9999	-9999	-9999	-9999	-9999	-9999	-9999	-9999	-9999	-9999	-9999	-9999	-9999	-9999	-9999	-9999	-9999	-9999	-9999	-9999	-9999	-9999	-9999	-9999	-9999	-9999	-9999	-9999	-9999	-9999	-9999	-9999	-9999	-9999	-9999	-9999	-9999	-9999	-9999	-9999	-9999	-9999	-9999	-9999	-9999	-9999	-9999	-9999	-9999	-9999	-9999	-9999	-9999	-9999	-9999	-9999	-9999	-9999	-9999	-9999	-9999	-9999	-9999	1275	1220	1192	1165	1122	1108	1080	1051	985	949	917	881	809	778	754	709	707	704	688	659	647	633	595	580	570	559	551	548	544	538	526	509	491	454	441	441	441	441	441	441	441	441	441	441	441	441	441	441	441	441	441	441	441	441	441	441	441	441	443	483	530	605	625	642	658	703	728	755	787	792	801	816	858	870	888	926	944	981	1021	1089	1110	1142	1187	1217	1235	1261	1332	1375	1404	1485	1523	1530	1566	1657	1691	1721	1800	1846	1900	1947	2045	2100	2145	2160	2119	2106	2089	2079	2061	2054	2051	2042	2033	2029	2053	2065	2077	2114	2072	2037	2012	1921	1865	1826	1798	1764	1764	1765	1765	1740	1718	1691	1616	1587	1566	1492	1451	1414	1377	1397	1417	1420	1398	1405	1406	1402	1403	1402	1412	1439	1423	1441	1434	1366	1324	1279	1234	1141	1097	1054	1002	982	956	918	860	860	871	896	899	910	919	927	950	943	927	921	915	909	833	760	733	805	840	886	902	897	900	948	1031	1041	1038	1031	1012	1008	1000	1045	1047	1047	1041	1022	1007	993	953	950	933	912	858	808	772	763	820	821	821	823	822	820	819	856	848	833	768	778	782	800	829	842	834	831	834	838	862	881	880	875	870	866	860	851	822	837	812	765	755	737	741	741
-9999	-9999	-9999	-9999	-9999	-9999	-9999	-9999	-9999	-9999	-9999	-9999	-9999	-9999	-9999	-9999	-9999	-9999	-9999	-9999	-9999	-9999	-9999	-9999	-9999	-9999	-9999	-9999	-9999	-9999	-9999	-9999	-9999	-9999	-9999	-9999	-9999	-9999	-9999	-9999	-9999	-9999	-9999	-9999	-9999	-9999	-9999	-9999	-9999	-9999	-9999	-9999	-9999	-9999	-9999	-9999	-9999	-9999	-9999	-9999	-9999	-9999	-9999	-9999	-9999	-9999	-9999	-9999	-9999	-9999	-9999	-9999	-9999	-9999	-9999	-9999	-9999	-9999	-9999	-9999	-9999	-9999	-9999	-9999	-9999	-9999	-9999	-9999	-9999	-9999	-9999	-9999	-9999	-9999	-9999	-9999	-9999	-9999	-9999	-9999	-9999	-9999	-9999	-9999	-9999	-9999	-9999	-9999	-9999	-9999	-9999	-9999	-9999	-9999	-9999	-9999	-9999	-9999	-9999	-9999	-9999	-9999	-9999	-9999	-9999	-9999	-9999	-9999	-9999	-9999	-9999	-9999	-9999	-9999	-9999	-9999	-9999	-9999	-9999	-9999	-9999	-9999	-9999	-9999	-9999	-9999	-9999	-9999	-9999	-9999	-9999	-9999	-9999	-9999	-9999	-9999	-9999	-9999	-9999	-9999	-9999	-9999	-9999	-9999	-9999	-9999	-9999	-9999	-9999	-9999	-9999	-9999	-9999	-9999	-9999	-9999	-9999	-9999	-9999	-9999	-9999	-9999	-9999	-9999	-9999	-9999	-9999	-9999	-9999	-9999	-9999	-9999	-9999	-9999	-9999	-9999	-9999	-9999	-9999	-9999	-9999	-9999	-9999	-9999	-9999	-9999	-9999	-9999	-9999	-9999	-9999	-9999	-9999	-9999	-9999	1278	1221	1190	1164	1137	1108	1079	1051	986	945	903	828	799	773	746	711	709	711	681	658	646	627	587	584	575	564	548	541	538	535	528	510	488	447	441	441	441	441	441	441	441	441	441	441	441	441	441	441	441	441	441	441	441	441	441	441	441	441	446	493	536	594	619	639	659	680	712	742	789	803	809	824	856	875	897	922	946	987	1031	1101	1120	1150	1201	1229	1262	1299	1377	1406	1449	1547	1548	1566	1583	1661	1708	1751	1829	1869	1918	1970	2062	2108	2151	2158	2125	2111	2108	2093	2084	2089	2119	2143	2080	2083	2108	2113	2107	2069	2044	2005	1952	1894	1845	1807	1781	1740	1728	1720	1679	1651	1637	1608	1559	1527	1530	1445	1420	1401	1396	1444	1480	1494	1453	1455	1462	1456	1454	1451	1463	1481	1489	1497	1472	1411	1371	1326	1240	1171	1124	1082	1022	997	967	902	877	862	859	882	885	894	904	906	906	903	902	901	901	899	853	770	721	781	813	855	856	846	890	948	991	991	990	984	971	969	964	956	953	958	951	931	924	957	925	911	897	880	846	811	757	758	787	780	764	788	787	786	783	781	781	777	739	737	758	786	799	801	796	790	788	793	810	834	839	839	849	844	836	826	796	763	736	708	699	691	691	690
-9999	-9999	-9999	-9999	-9999	-9999	-9999	-9999	-9999	-9999	-9999	-9999	-9999	-9999	-9999	-9999	-9999	-9999	-9999	-9999	-9999	-9999	-9999	-9999	-9999	-9999	-9999	-9999	-9999	-9999	-9999	-9999	-9999	-9999	-9999	-9999	-9999	-9999	-9999	-9999	-9999	-9999	-9999	-9999	-9999	-9999	-9999	-9999	-9999	-9999	-9999	-9999	-9999	-9999	-9999	-9999	-9999	-9999	-9999	-9999	-9999	-9999	-9999	-9999	-9999	-9999	-9999	-9999	-9999	-9999	-9999	-9999	-9999	-9999	-9999	-9999	-9999	-9999	-9999	-9999	-9999	-9999	-9999	-9999	-9999	-9999	-9999	-9999	-9999	-9999	-9999	-9999	-9999	-9999	-9999	-9999	-9999	-9999	-9999	-9999	-9999	-9999	-9999	-9999	-9999	-9999	-9999	-9999	-9999	-9999	-9999	-9999	-9999	-9999	-9999	-9999	-9999	-9999	-9999	-9999	-9999	-9999	-9999	-9999	-9999	-9999	-9999	-9999	-9999	-9999	-9999	-9999	-9999	-9999	-9999	-9999	-9999	-9999	-9999	-9999	-9999	-9999	-9999	-9999	-9999	-9999	-9999	-9999	-9999	-9999	-9999	-9999	-9999	-9999	-9999	-9999	-9999	-9999	-9999	-9999	-9999	-9999	-9999	-9999	-9999	-9999	-9999	-9999	-9999	-9999	-9999	-9999	-9999	-9999	-9999	-9999	-9999	-9999	-9999	-9999	-9999	-9999	-9999	-9999	-9999	-9999	-9999	-9999	-9999	-9999	-9999	-9999	-9999	-9999	-9999	-9999	-9999	-9999	-9999	-9999	-9999	-9999	-9999	-9999	-9999	-9999	-9999	-9999	-9999	-9999	-9999	-9999	-9999	-9999	-9999	1277	1230	1205	1180	1150	1126	1095	1062	987	951	907	828	794	769	741	712	712	718	681	656	641	625	584	586	585	549	538	538	536	517	522	506	455	441	441	441	441	441	441	441	441	441	441	441	441	441	441	441	441	441	441	441	441	441	441	441	441	441	448	492	531	572	610	627	657	683	702	731	778	805	810	837	850	872	902	932	962	1008	1077	1112	1132	1159	1215	1241	1278	1313	1389	1427	1464	1563	1607	1645	1640	1694	1739	1787	1852	1897	1942	1987	2078	2123	2165	2161	2131	2117	2110	2100	2103	2119	2141	2141	2131	2110	2063	2037	2019	1980	1968	1976	1935	1854	1821	1793	1741	1718	1695	1677	1646	1618	1601	1555	1528	1495	1482	1507	1509	1509	1520	1558	1589	1562	1525	1514	1518	1512	1512	1510	1513	1527	1532	1517	1486	1424	1386	1348	1263	1218	1175	1131	1050	1015	983	920	899	884	862	862	869	880	888	890	888	884	890	886	889	875	859	809	735	718	761	785	765	826	884	915	948	951	945	944	930	930	926	918	914	914	908	887	879	870	843	840	831	820	776	795	760	712	746	737	728	753	755	753	757	753	746	739	723	729	756	763	761	753	743	735	727	721	776	786	796	806	833	826	815	803	773	749	716	677	673	668	666	669
-9999	-9999	-9999	-9999	-9999	-9999	-9999	-9999	-9999	-9999	-9999	-9999	-9999	-9999	-9999	-9999	-9999	-9999	-9999	-9999	-9999	-9999	-9999	-9999	-9999	-9999	-9999	-9999	-9999	-9999	-9999	-9999	-9999	-9999	-9999	-9999	-9999	-9999	-9999	-9999	-9999	-9999	-9999	-9999	-9999	-9999	-9999	-9999	-9999	-9999	-9999	-9999	-9999	-9999	-9999	-9999	-9999	-9999	-9999	-9999	-9999	-9999	-9999	-9999	-9999	-9999	-9999	-9999	-9999	-9999	-9999	-9999	-9999	-9999	-9999	-9999	-9999	-9999	-9999	-9999	-9999	-9999	-9999	-9999	-9999	-9999	-9999	-9999	-9999	-9999	-9999	-9999	-9999	-9999	-9999	-9999	-9999	-9999	-9999	-9999	-9999	-9999	-9999	-9999	-9999	-9999	-9999	-9999	-9999	-9999	-9999	-9999	-9999	-9999	-9999	-9999	-9999	-9999	-9999	-9999	-9999	-9999	-9999	-9999	-9999	-9999	-9999	-9999	-9999	-9999	-9999	-9999	-9999	-9999	-9999	-9999	-9999	-9999	-9999	-9999	-9999	-9999	-9999	-9999	-9999	-9999	-9999	-9999	-9999	-9999	-9999	-9999	-9999	-9999	-9999	-9999	-9999	-9999	-9999	-9999	-9999	-9999	-9999	-9999	-9999	-9999	-9999	-9999	-9999	-9999	-9999	-9999	-9999	-9999	-9999	-9999	-9999	-9999	-9999	-9999	-9999	-9999	-9999	-9999	-9999	-9999	-9999	-9999	-9999	-9999	-9999	-9999	-9999	-9999	-9999	-9999	-9999	-9999	-9999	-9999	-9999	-9999	-9999	-9999	-9999	-9999	-9999	-9999	-9999	-9999	-9999	-9999	-9999	-9999	-9999	1255	1234	1211	1191	1151	1127	1100	1068	990	948	910	848	812	775	736	709	714	719	676	651	635	619	580	586	582	545	536	537	533	521	498	480	442	441	441	441	441	441	441	441	441	441	441	441	441	441	441	441	441	441	441	441	441	441	441	441	441	441	457	516	560	595	606	620	667	697	716	731	798	825	829	848	857	888	903	945	970	1005	1081	1105	1135	1169	1222	1247	1287	1361	1401	1442	1488	1570	1616	1666	1674	1707	1753	1805	1898	1939	1985	2079	2119	2158	2197	2176	2148	2124	2110	2108	2088	2083	2075	2072	2054	2038	1998	1971	1960	1911	1917	1901	1853	1792	1757	1726	1679	1687	1651	1631	1604	1580	1561	1522	1500	1497	1518	1545	1555	1561	1567	1598	1633	1670	1664	1656	1661	1643	1644	1582	1570	1572	1554	1534	1500	1429	1391	1358	1283	1239	1194	1147	1055	1015	982	920	894	878	876	868	858	855	870	872	871	869	875	872	871	857	845	813	753	691	732	752	710	740	777	807	855	856	852	844	890	895	892	881	880	878	861	855	851	842	810	806	791	774	729	705	687	656	681	669	663	679	718	717	723	718	714	708	703	724	745	754	752	744	732	723	715	707	695	701	710	731	782	793	799	765	748	733	710	654	653	649	649	649
-9999	-9999	-9999	-9999	-9999	-9999	-9999	-9999	-9999	-9999	-9999	-9999	-9999	-9999	-9999	-9999	-9999	-9999	-9999	-9999	-9999	-9999	-9999	-9999	-9999	-9999	-9999	-9999	-9999	-9999	-9999	-9999	-9999	-9999	-9999	-9999	-9999	-9999	-9999	-9999	-9999	-9999	-9999	-9999	-9999	-9999	-9999	-9999	-9999	-9999	-9999	-9999	-9999	-9999	-9999	-9999	-9999	-9999	-9999	-9999	-9999	-9999	-9999	-9999	-9999	-9999	-9999	-9999	-9999	-9999	-9999	-9999	-9999	-9999	-9999	-9999	-9999	-9999	-9999	-9999	-9999	-9999	-9999	-9999	-9999	-9999	-9999	-9999	-9999	-9999	-9999	-9999	-9999	-9999	-9999	-9999	-9999	-9999	-9999	-9999	-9999	-9999	-9999	-9999	-9999	-9999	-9999	-9999	-9999	-9999	-9999	-9999	-9999	-9999	-9999	-9999	-9999	-9999	-9999	-9999	-9999	-9999	-9999	-9999	-9999	-9999	-9999	-9999	-9999	-9999	-9999	-9999	-9999	-9999	-9999	-9999	-9999	-9999	-9999	-9999	-9999	-9999	-9999	-9999	-9999	-9999	-9999	-9999	-9999	-9999	-9999	-9999	-9999	-9999	-9999	-9999	-9999	-9999	-9999	-9999	-9999	-9999	-9999	-9999	-9999	-9999	-9999	-9999	-9999	-9999	-9999	-9999	-9999	-9999	-9999	-9999	-9999	-9999	-9999	-9999	-9999	-9999	-9999	-9999	-9999	-9999	-9999	-9999	-9999	-9999	-9999	-9999	-9999	-9999	-9999	-9999	-9999	-9999	-9999	-9999	-9999	-9999	-9999	-9999	-9999	-9999	-9999	-9999	-9999	-9999	-9999	-9999	-9999	-9999	-9999	1256	1240	1221	1197	1147	1122	1100	1023	987	959	925	847	814	777	708	698	716	710	665	642	629	609	574	582	576	541	535	534	528	520	500	469	441	441	441	441	441	441	441	441	441	441	441	441	441	441	441	441	441	441	441	441	441	441	441	441	441	441	473	533	589	606	617	624	683	706	731	740	802	824	829	848	868	901	918	965	980	1004	1062	1095	1134	1181	1232	1267	1301	1378	1414	1452	1499	1587	1625	1669	1694	1728	1776	1831	1920	1962	2006	2099	2137	2177	2213	2194	2166	2142	2117	2101	2077	2058	2028	2025	2008	1974	1951	1919	1899	1854	1834	1820	1789	1753	1726	1698	1632	1609	1586	1568	1541	1531	1521	1507	1510	1526	1547	1561	1590	1603	1608	1626	1660	1702	1723	1719	1717	1694	1690	1663	1630	1588	1566	1543	1478	1436	1402	1368	1298	1259	1210	1110	1064	1024	985	916	890	871	865	869	860	844	845	845	845	846	847	843	856	841	827	801	749	672	704	720	683	697	726	755	796	811	808	790	788	805	813	813	809	806	831	825	814	801	770	761	747	711	685	662	647	643	663	653	657	657	659	656	652	656	657	665	698	716	728	742	738	731	723	708	703	696	670	670	682	698	735	743	743	710	693	688	679	629	634	632	627	633
-9999	-9999	-9999	-9999	-9999	-9999	-9999	-9999	-9999	-9999	-9999	-9999	-9999	-9999	-9999	-9999	-9999	-9999	-9999	-9999	-9999	-9999	-9999	-9999	-9999	-9999	-9999	-9999	-9999	-9999	-9999	-9999	-9999	-9999	-9999	-9999	-9999	-9999	-9999	-9999	-9999	-9999	-9999	-9999	-9999	-9999	-9999	-9999	-9999	-9999	-9999	-9999	-9999	-9999	-9999	-9999	-9999	-9999	-9999	-9999	-9999	-9999	-9999	-9999	-9999	-9999	-9999	-9999	-9999	-9999	-9999	-9999	-9999	-9999	-9999	-9999	-9999	-9999	-9999	-9999	-9999	-9999	-9999	-9999	-9999	-9999	-9999	-9999	-9999	-9999	-9999	-9999	-9999	-9999	-9999	-9999	-9999	-9999	-9999	-9999	-9999	-9999	-9999	-9999	-9999	-9999	-9999	-9999	-9999	-9999	-9999	-9999	-9999	-9999	-9999	-9999	-9999	-9999	-9999	-9999	-9999	-9999	-9999	-9999	-9999	-9999	-9999	-9999	-9999	-9999	-9999	-9999	-9999	-9999	-9999	-9999	-9999	-9999	-9999	-9999	-9999	-9999	-9999	-9999	-9999	-9999	-9999	-9999	-9999	-9999	-9999	-9999	-9999	-9999	-9999	-9999	-9999	-9999	-9999	-9999	-9999	-9999	-9999	-9999	-9999	-9999	-9999	-9999	-9999	-9999	-9999	-9999	-9999	-9999	-9999	-9999	-9999	-9999	-9999	-9999	-9999	-9999	-9999	-9999	-9999	-9999	-9999	-9999	-9999	-9999	-9999	-9999	-9999	-9999	-9999	-9999	-9999	-9999	-9999	-9999	-9999	-9999	-9999	-9999	-9999	-9999	-9999	-9999	-9999	-9999	-9999	-9999	-9999	-9999	-9999	1254	1241	1226	1206	1152	1120	1099	1026	990	958	925	841	808	774	706	695	715	706	660	637	621	581	569	571	564	548	536	531	527	520	500	473	441	441	441	441	441	441	441	441	441	441	441	441	441	441	441	441	441	441	441	441	441	441	441	441	441	442	485	527	582	599	612	632	677	704	713	754	775	798	803	851	880	911	962	985	1003	1010	1063	1101	1149	1188	1246	1279	1313	1404	1442	1479	1505	1618	1677	1724	1733	1745	1795	1849	1936	1978	2024	2110	2151	2192	2226	2194	2165	2141	2113	2088	2055	2021	1989	1990	1967	1896	1875	1879	1853	1810	1788	1780	1729	1715	1697	1664	1598	1573	1563	1543	1536	1534	1538	1561	1577	1595	1616	1651	1662	1667	1637	1653	1678	1730	1752	1742	1732	1714	1708	1683	1649	1589	1565	1542	1485	1453	1419	1387	1320	1288	1249	1149	1085	1042	998	921	893	871	859	857	859	846	812	833	837	828	825	817	809	790	770	755	722	635	673	697	668	669	683	697	740	757	758	757	750	759	770	771	767	771	767	762	748	728	689	676	696	671	646	629	614	634	652	645	631	636	635	631	629	634	651	680	686	685	689	706	705	700	683	687	688	683	657	652	658	666	689	701	699	676	668	673	667	623	606	598	589	585
-9999	-9999	-9999	-9999	-9999	-9999	-9999	-9999	-9999	-9999	-9999	-9999	-9999	-9999	-9999	-9999	-9999	-9999	-9999	-9999	-9999	-9999	-9999	-9999	-9999	-9999	-9999	-9999	-9999	-9999	-9999	-9999	-9999	-9999	-9999	-9999	-9999	-9999	-9999	-9999	-9999	-9999	-9999	-9999	-9999	-9999	-9999	-9999	-9999	-9999	-9999	-9999	-9999	-9999	-9999	-9999	-9999	-9999	-9999	-9999	-9999	-9999	-9999	-9999	-9999	-9999	-9999	-9999	-9999	-9999	-9999	-9999	-9999	-9999	-9999	-9999	-9999	-9999	-9999	-9999	-9999	-9999	-9999	-9999	-9999	-9999	-9999	-9999	-9999	-9999	-9999	-9999	-9999	-9999	-9999	-9999	-9999	-9999	-9999	-9999	-9999	-9999	-9999	-9999	-9999	-9999	-9999	-9999	-9999	-9999	-9999	-9999	-9999	-9999	-9999	-9999	-9999	-9999	-9999	-9999	-9999	-9999	-9999	-9999	-9999	-9999	-9999	-9999	-9999	-9999	-9999	-9999	-9999	-9999	-9999	-9999	-9999	-9999	-9999	-9999	-9999	-9999	-9999	-9999	-9999	-9999	-9999	-9999	-9999	-9999	-9999	-9999	-9999	-9999	-9999	-9999	-9999	-9999	-9999	-9999	-9999	-9999	-9999	-9999	-9999	-9999	-9999	-9999	-9999	-9999	-9999	-9999	-9999	-9999	-9999	-9999	-9999	-9999	-9999	-9999	-9999	-9999	-9999	-9999	-9999	-9999	-9999	-9999	-9999	-9999	-9999	-9999	-9999	-9999	-9999	-9999	-9999	-9999	-9999	-9999	-9999	-9999	-9999	-9999	-9999	-9999	-9999	-9999	-9999	-9999	-9999	-9999	-9999	-9999	-9999	1255	1240	1224	1207	1160	1125	1094	1021	978	931	896	838	808	771	704	692	709	698	654	632	617	582	566	567	558	550	536	531	526	515	492	466	441	441	441	441	441	441	441	441	441	441	441	441	441	441	441	441	441	441	441	441	441	441	441	441	441	446	495	536	576	588	605	631	671	686	702	741	754	778	805	865	891	927	979	1005	1029	1040	1089	1122	1163	1224	1256	1291	1326	1414	1455	1501	1580	1617	1669	1718	1761	1776	1811	1847	1930	1988	2037	2130	2162	2201	2238	2179	2135	2100	2076	2047	2016	1985	1962	1950	1935	1887	1861	1822	1785	1735	1713	1696	1651	1637	1660	1631	1580	1564	1549	1544	1549	1557	1568	1598	1616	1637	1671	1686	1682	1693	1704	1701	1721	1777	1767	1762	1744	1723	1709	1692	1671	1597	1567	1542	1490	1460	1429	1390	1326	1291	1255	1154	1099	1042	993	901	861	843	843	834	843	837	792	804	818	802	797	793	785	759	738	724	678	646	623	647	664	638	619	630	688	702	710	719	716	717	722	724	725	725	733	730	715	692	664	647	626	599	588	572	575	622	623	637	620	620	612	609	631	644	657	673	674	670	668	682	682	678	665	655	658	652	639	633	626	650	659	672	677	656	646	648	643	619	591	580	574	566
-9999	-9999	-9999	-9999	-9999	-9999	-9999	-9999	-9999	-9999	-9999	-9999	-9999	-9999	-9999	-9999	-9999	-9999	-9999	-9999	-9999	-9999	-9999	-9999	-9999	-9999	-9999	-9999	-9999	-9999	-9999	-9999	-9999	-9999	-9999	-9999	-9999	-9999	-9999	-9999	-9999	-9999	-9999	-9999	-9999	-9999	-9999	-9999	-9999	-9999	-9999	-9999	-9999	-9999	-9999	-9999	-9999	-9999	-9999	-9999	-9999	-9999	-9999	-9999	-9999	-9999	-9999	-9999	-9999	-9999	-9999	-9999	-9999	-9999	-9999	-9999	-9999	-9999	-9999	-9999	-9999	-9999	-9999	-9999	-9999	-9999	-9999	-9999	-9999	-9999	-9999	-9999	-9999	-9999	-9999	-9999	-9999	-9999	-9999	-9999	-9999	-9999	-9999	-9999	-9999	-9999	-9999	-9999	-9999	-9999	-9999	-9999	-9999	-9999	-9999	-9999	-9999	-9999	-9999	-9999	-9999	-9999	-9999	-9999	-9999	-9999	-9999	-9999	-9999	-9999	-9999	-9999	-9999	-9999	-9999	-9999	-9999	-9999	-9999	-9999	-9999	-9999	-9999	-9999	-9999	-9999	-9999	-9999	-9999	-9999	-9999	-9999	-9999	-9999	-9999	-9999	-9999	-9999	-9999	-9999	-9999	-9999	-9999	-9999	-9999	-9999	-9999	-9999	-9999	-9999	-9999	-9999	-9999	-9999	-9999	-9999	-9999	-9999	-9999	-9999	-9999	-9999	-9999	-9999	-9999	-9999	-9999	-9999	-9999	-9999	-9999	-9999	-9999	-9999	-9999	-9999	-9999	-9999	-9999	-9999	-9999	-9999	-9999	-9999	-9999	-9999	-9999	-9999	-9999	-9999	-9999	-9999	-9999	-9999	-9999	1258	1237	1219	1192	1165	1129	1099	1013	974	924	854	822	792	764	700	681	695	692	647	628	614	575	562	560	553	547	535	529	527	515	495	471	441	441	441	441	441	441	441	441	441	441	441	441	441	441	441	441	441	441	441	441	441	441	441	441	441	443	483	525	567	592	604	623	669	680	693	733	766	800	821	871	895	932	991	1021	1047	1068	1120	1156	1196	1255	1283	1312	1343	1432	1474	1518	1619	1662	1705	1752	1786	1787	1821	1880	1922	1978	2019	2121	2182	2221	2165	2124	2090	2075	2042	2022	1996	1970	1939	1912	1897	1855	1828	1796	1763	1712	1691	1673	1618	1602	1598	1588	1564	1562	1565	1583	1574	1586	1600	1631	1657	1681	1705	1720	1719	1732	1753	1751	1758	1785	1776	1768	1761	1733	1718	1701	1655	1622	1572	1546	1500	1474	1440	1370	1336	1300	1270	1175	1119	1062	1012	910	866	836	792	770	781	787	767	740	757	776	768	757	751	724	706	688	669	646	613	620	644	636	608	607	605	609	611	639	643	649	635	683	687	691	705	694	678	643	634	617	600	575	565	552	563	608	602	613	589	576	578	598	639	649	659	663	660	659	657	662	666	663	652	643	645	642	632	628	621	610	617	632	648	644	625	626	624	609	581	561	556	551
-9999	-9999	-9999	-9999	-9999	-9999	-9999	-9999	-9999	-9999	-9999	-9999	-9999	-9999	-9999	-9999	-9999	-9999	-9999	-9999	-9999	-9999	-9999	-9999	-9999	-9999	-9999	-9999	-9999	-9999	-9999	-9999	-9999	-9999	-9999	-9999	-9999	-9999	-9999	-9999	-9999	-9999	-9999	-9999	-9999	-9999	-9999	-9999	-9999	-9999	-9999	-9999	-9999	-9999	-9999	-9999	-9999	-9999	-9999	-9999	-9999	-9999	-9999	-9999	-9999	-9999	-9999	-9999	-9999	-9999	-9999	-9999	-9999	-9999	-9999	-9999	-9999	-9999	-9999	-9999	-9999	-9999	-9999	-9999	-9999	-9999	-9999	-9999	-9999	-9999	-9999	-9999	-9999	-9999	-9999	-9999	-9999	-9999	-9999	-9999	-9999	-9999	-9999	-9999	-9999	-9999	-9999	-9999	-9999	-9999	-9999	-9999	-9999	-9999	-9999	-9999	-9999	-9999	-9999	-9999	-9999	-9999	-9999	-9999	-9999	-9999	-9999	-9999	-9999	-9999	-9999	-9999	-9999	-9999	-9999	-9999	-9999	-9999	-9999	-9999	-9999	-9999	-9999	-9999	-9999	-9999	-9999	-9999	-9999	-9999	-9999	-9999	-9999	-9999	-9999	-9999	-9999	-9999	-9999	-9999	-9999	-9999	-9999	-9999	-9999	-9999	-9999	-9999	-9999	-9999	-9999	-9999	-9999	-9999	-9999	-9999	-9999	-9999	-9999	-9999	-9999	-9999	-9999	-9999	-9999	-9999	-9999	-9999	-9999	-9999	-9999	-9999	-9999	-9999	-9999	-9999	-9999	-9999	-9999	-9999	-9999	-9999	-9999	-9999	-9999	-9999	-9999	-9999	-9999	-9999	-9999	-9999	-9999	-9999	-9999	1263	1237	1215	1190	1160	1122	1091	1008	967	920	847	819	787	756	697	678	686	654	635	614	601	563	553	555	552	545	532	528	526	509	489	468	441	441	441	441	441	441	441	441	441	441	441	441	441	441	441	441	441	441	441	441	441	441	441	441	441	443	472	517	561	585	603	634	651	668	697	750	777	810	852	876	894	933	997	1033	1054	1090	1138	1170	1209	1265	1292	1333	1370	1455	1510	1564	1653	1695	1734	1782	1812	1797	1825	1884	1924	1965	2000	2098	2159	2210	2150	2106	2073	2056	2020	1994	1959	1920	1904	1873	1851	1814	1798	1777	1715	1687	1668	1648	1611	1592	1585	1581	1575	1580	1587	1613	1625	1644	1674	1714	1748	1784	1751	1758	1763	1778	1808	1802	1798	1791	1786	1773	1761	1731	1716	1697	1655	1638	1606	1577	1520	1492	1456	1383	1355	1315	1280	1187	1128	1078	970	917	876	841	766	748	746	750	718	703	719	712	705	694	689	663	650	655	655	643	606	593	611	613	609	578	582	583	576	605	615	617	607	606	608	614	621	614	601	610	602	590	575	553	547	538	566	576	576	585	562	563	576	605	629	639	641	636	639	641	640	648	653	656	641	632	627	625	622	615	610	610	607	611	622	637	627	610	563	557	546	529	527	523
-9999	-9999	-9999	-9999	-9999	-9999	-9999	-9999	-9999	-9999	-9999	-9999	-9999	-9999	-9999	-9999	-9999	-9999	-9999	-9999	-9999	-9999	-9999	-9999	-9999	-9999	-9999	-9999	-9999	-9999	-9999	-9999	-9999	-9999	-9999	-9999	-9999	-9999	-9999	-9999	-9999	-9999	-9999	-9999	-9999	-9999	-9999	-9999	-9999	-9999	-9999	-9999	-9999	-9999	-9999	-9999	-9999	-9999	-9999	-9999	-9999	-9999	-9999	-9999	-9999	-9999	-9999	-9999	-9999	-9999	-9999	-9999	-9999	-9999	-9999	-9999	-9999	-9999	-9999	-9999	-9999	-9999	-9999	-9999	-9999	-9999	-9999	-9999	-9999	-9999	-9999	-9999	-9999	-9999	-9999	-9999	-9999	-9999	-9999	-9999	-9999	-9999	-9999	-9999	-9999	-9999	-9999	-9999	-9999	-9999	-9999	-9999	-9999	-9999	-9999	-9999	-9999	-9999	-9999	-9999	-9999	-9999	-9999	-9999	-9999	-9999	-9999	-9999	-9999	-9999	-9999	-9999	-9999	-9999	-9999	-9999	-9999	-9999	-9999	-9999	-9999	-9999	-9999	-9999	-9999	-9999	-9999	-9999	-9999	-9999	-9999	-9999	-9999	-9999	-9999	-9999	-9999	-9999	-9999	-9999	-9999	-9999	-9999	-9999	-9999	-9999	-9999	-9999	-9999	-9999	-9999	-9999	-9999	-9999	-9999	-9999	-9999	-9999	-9999	-9999	-9999	-9999	-9999	-9999	-9999	-9999	-9999	-9999	-9999	-9999	-9999	-9999	-9999	-9999	-9999	-9999	-9999	-9999	-9999	-9999	-9999	-9999	-9999	-9999	-9999	-9999	-9999	-9999	-9999	-9999	-9999	-9999	-9999	-9999	-9999	1263	1241	1217	1164	1128	1094	1059	993	962	908	843	815	783	751	697	675	681	646	628	611	595	557	551	555	549	541	528	525	510	492	482	441	441	441	441	441	441	441	441	441	441	441	441	441	441	441	441	441	441	441	441	441	441	441	441	441	441	442	466	502	564	591	617	647	653	667	707	762	804	827	875	884	898	944	1002	1031	1056	1116	1146	1174	1207	1264	1297	1335	1412	1463	1517	1571	1668	1714	1765	1810	1853	1861	1865	1909	1925	1961	1997	2095	2157	2212	2156	2106	2058	2035	2002	1967	1947	1915	1890	1862	1826	1783	1767	1746	1693	1666	1649	1638	1611	1598	1587	1585	1591	1600	1610	1640	1656	1671	1739	1762	1796	1831	1772	1750	1750	1791	1821	1813	1814	1803	1797	1777	1757	1732	1716	1697	1658	1638	1615	1592	1535	1501	1459	1389	1361	1333	1302	1220	1160	1092	983	917	868	833	750	729	711	717	703	655	680	681	661	656	645	628	622	612	602	609	586	569	558	580	590	571	557	551	547	565	576	574	579	579	581	577	568	562	550	535	529	515	501	503	502	513	526	539	548	545	546	559	566	593	615	614	616	632	633	636	630	628	631	635	622	610	603	602	613	605	600	612	608	603	615	616	609	593	531	515	513	515	515	512
-9999	-9999	-9999	-9999	-9999	-9999	-9999	-9999	-9999	-9999	-9999	-9999	-9999	-9999	-9999	-9999	-9999	-9999	-9999	-9999	-9999	-9999	-9999	-9999	-9999	-9999	-9999	-9999	-9999	-9999	-9999	-9999	-9999	-9999	-9999	-9999	-9999	-9999	-9999	-9999	-9999	-9999	-9999	-9999	-9999	-9999	-9999	-9999	-9999	-9999	-9999	-9999	-9999	-9999	-9999	-9999	-9999	-9999	-9999	-9999	-9999	-9999	-9999	-9999	-9999	-9999	-9999	-9999	-9999	-9999	-9999	-9999	-9999	-9999	-9999	-9999	-9999	-9999	-9999	-9999	-9999	-9999	-9999	-9999	-9999	-9999	-9999	-9999	-9999	-9999	-9999	-9999	-9999	-9999	-9999	-9999	-9999	-9999	-9999	-9999	-9999	-9999	-9999	-9999	-9999	-9999	-9999	-9999	-9999	-9999	-9999	-9999	-9999	-9999	-9999	-9999	-9999	-9999	-9999	-9999	-9999	-9999	-9999	-9999	-9999	-9999	-9999	-9999	-9999	-9999	-9999	-9999	-9999	-9999	-9999	-9999	-9999	-9999	-9999	-9999	-9999	-9999	-9999	-9999	-9999	-9999	-9999	-9999	-9999	-9999	-9999	-9999	-9999	-9999	-9999	-9999	-9999	-9999	-9999	-9999	-9999	-9999	-9999	-9999	-9999	-9999	-9999	-9999	-9999	-9999	-9999	-9999	-9999	-9999	-9999	-9999	-9999	-9999	-9999	-9999	-9999	-9999	-9999	-9999	-9999	-9999	-9999	-9999	-9999	-9999	-9999	-9999	-9999	-9999	-9999	-9999	-9999	-9999	-9999	-9999	-9999	-9999	-9999	-9999	-9999	-9999	-9999	-9999	-9999	-9999	-9999	-9999	-9999	-9999	-9999	1261	1239	1215	1159	1117	1079	1008	975	941	898	823	807	776	747	691	669	674	647	625	605	588	551	552	555	548	537	525	523	501	482	462	441	441	441	441	441	441	441	441	441	441	441	441	441	441	441	441	441	441	441	441	441	441	441	441	441	441	443	481	518	568	593	612	650	661	678	700	773	810	834	863	885	906	952	1024	1055	1097	1144	1169	1201	1226	1266	1298	1336	1407	1451	1498	1558	1667	1713	1759	1837	1865	1893	1904	1943	1993	2033	2118	2173	2225	2236	2165	2106	2057	2036	1988	1957	1946	1899	1874	1842	1798	1761	1748	1730	1679	1664	1651	1642	1626	1624	1627	1634	1658	1624	1630	1666	1690	1710	1773	1798	1799	1792	1709	1686	1680	1707	1733	1735	1743	1810	1786	1760	1728	1715	1708	1699	1661	1639	1620	1573	1542	1503	1464	1394	1365	1337	1302	1222	1173	1113	995	929	874	822	746	707	688	686	685	632	630	643	639	628	615	602	594	587	569	575	570	565	551	541	540	542	535	523	492	492	532	533	548	548	547	524	518	513	507	492	484	471	464	468	475	486	492	498	495	490	533	546	556	577	588	595	624	640	641	641	632	627	627	628	621	614	603	601	596	595	591	580	581	586	597	591	580	565	512	502	505	506	506	504
