ncols 127
nrows 126
xllcorner -1620000
yllcorner 438000
cellsize 100
NODATA_value -9999
1370 1348 1359 1330 1317 1441 1502 1545 1589 1704 1710 1673 1677 1719 1703 1713 1687 1721 1709 1635 1619 1590 1599 1631 1622 1607 1535 1481 1428 1382 1306 1268 1227 1192 1082 1040 994 930 897 890 879 808 779 806 915 963 1009 1036 1102 1132 1159 1231 1273 1300 1315 1362 1373 1378 1422 1431 1444 1449 1438 1434 1418 1420 1435 1469 1509 1592 1618 1633 1617 1672 1730 1764 1837 1869 1898 1949 2003 2038 2065 2117 2132 2142 2148 2166 2179 2198 2233 2249 2268 2293 2321 2326 2281 2218 2209 2217 2218 2270 2207 2182 2155 2144 2140 2164 2166 2158 2151 2171 2266 2355 2362 2331 2308 2321 2318 2299 2290 2286 2252 2229 2135 2107 2083 
1403 1409 1409 1384 1352 1451 1517 1568 1616 1723 1766 1751 1731 1762 1802 1854 1842 1816 1790 1754 1678 1677 1678 1646 1620 1605 1538 1485 1434 1388 1307 1269 1231 1149 1093 1044 1003 941 948 935 887 842 784 796 900 944 982 1050 1074 1100 1134 1220 1253 1274 1287 1335 1352 1358 1383 1392 1399 1401 1368 1350 1376 1395 1432 1477 1508 1564 1580 1591 1603 1651 1689 1741 1822 1853 1883 1934 1973 2001 2020 2059 2059 2062 2121 2124 2138 2153 2187 2213 2242 2312 2347 2370 2347 2272 2272 2276 2311 2308 2258 2241 2225 2216 2223 2237 2196 2188 2177 2200 2289 2387 2414 2391 2369 2371 2351 2332 2322 2314 2276 2259 2234 2175 2156 
1502 1522 1515 1477 1392 1455 1508 1563 1671 1728 1787 1830 1814 1845 1868 1895 1850 1824 1803 1764 1743 1723 1704 1650 1620 1599 1546 1490 1434 1385 1303 1265 1225 1154 1105 1052 1003 975 979 961 914 874 826 794 822 873 923 987 1045 1084 1116 1192 1219 1237 1287 1312 1330 1334 1361 1369 1377 1360 1336 1313 1304 1389 1419 1433 1434 1457 1527 1536 1573 1625 1684 1738 1806 1836 1860 1919 1956 1978 1988 2006 2006 2013 2029 2039 2055 2070 2114 2133 2204 2279 2309 2348 2382 2342 2359 2368 2371 2328 2295 2278 2253 2252 2263 2257 2248 2234 2223 2251 2311 2417 2467 2456 2444 2441 2383 2366 2355 2345 2301 2282 2266 2221 2192 
1560 1579 1570 1516 1488 1519 1571 1601 1686 1752 1819 1868 1917 1932 1938 1885 1851 1832 1811 1769 1747 1725 1673 1648 1616 1591 1530 1481 1428 1370 1268 1223 1180 1124 1086 1045 1010 1021 1018 995 945 912 873 830 795 835 886 975 1004 1029 1064 1125 1153 1172 1230 1284 1301 1311 1337 1349 1353 1329 1308 1287 1285 1367 1385 1379 1380 1405 1444 1489 1586 1628 1676 1744 1771 1817 1841 1895 1918 1937 1947 1957 1959 1967 1985 2000 2021 2039 2079 2100 2132 2206 2243 2274 2305 2382 2421 2427 2388 2353 2330 2310 2295 2305 2310 2279 2269 2258 2249 2270 2337 2446 2546 2514 2483 2469 2440 2429 2417 2353 2328 2313 2291 2256 2227 
1605 1630 1623 1572 1566 1546 1596 1652 1702 1765 1829 1896 1966 1961 1934 1887 1862 1837 1816 1767 1745 1716 1659 1637 1602 1568 1503 1454 1399 1298 1250 1202 1161 1079 1069 1080 1103 1105 1093 1029 978 948 915 888 793 806 849 945 973 1008 1037 1087 1113 1141 1207 1228 1248 1275 1290 1299 1302 1298 1276 1260 1268 1336 1336 1317 1383 1427 1462 1510 1590 1630 1674 1730 1750 1766 1784 1822 1838 1853 1871 1914 1918 1927 1948 1968 1991 2021 2046 2076 2107 2186 2221 2244 2269 2346 2380 2405 2432 2451 2464 2481 2464 2384 2375 2309 2295 2284 2278 2300 2374 2492 2511 2487 2464 2463 2462 2473 2469 2447 2421 2394 2364 2328 2300 
1596 1675 1675 1642 1617 1595 1620 1672 1745 1779 1835 1900 1973 1962 1931 1872 1857 1818 1798 1749 1710 1660 1572 1597 1564 1528 1460 1420 1371 1267 1226 1181 1143 1112 1117 1132 1146 1147 1132 1097 1034 1002 969 893 852 798 825 909 939 971 1026 1056 1084 1118 1179 1193 1224 1255 1268 1271 1273 1240 1212 1196 1234 1246 1237 1290 1400 1448 1490 1536 1596 1626 1661 1701 1719 1730 1741 1784 1801 1813 1829 1833 1840 1858 1889 1913 1930 1995 2027 2059 2089 2162 2183 2203 2271 2301 2326 2345 2383 2409 2405 2418 2414 2413 2410 2405 2387 2385 2341 2325 2426 2516 2494 2472 2453 2448 2476 2511 2512 2505 2474 2448 2418 2369 2339 
1623 1721 1755 1763 1742 1728 1711 1703 1807 1839 1864 1969 1976 1963 1926 1860 1846 1810 1742 1719 1676 1621 1540 1495 1474 1436 1386 1354 1312 1240 1198 1158 1135 1158 1169 1188 1199 1192 1166 1131 1061 1030 1000 929 898 871 835 820 860 899 968 999 1062 1096 1154 1175 1206 1239 1243 1240 1243 1210 1181 1179 1203 1200 1235 1297 1408 1463 1507 1558 1580 1597 1639 1663 1679 1691 1699 1743 1760 1771 1785 1789 1796 1817 1861 1885 1898 1950 1995 2028 2053 2077 2089 2131 2227 2248 2267 2285 2335 2363 2337 2324 2336 2345 2349 2382 2389 2400 2388 2435 2474 2501 2440 2437 2427 2417 2457 2504 2502 2536 2533 2517 2435 2408 2368 
1642 1748 1780 1804 1806 1789 1773 1782 1856 1914 1962 1992 1981 1964 1922 1869 1839 1793 1686 1675 1637 1597 1496 1462 1417 1357 1338 1313 1279 1199 1187 1209 1239 1257 1269 1279 1257 1240 1206 1169 1091 1060 1034 973 941 913 878 814 821 860 943 977 1007 1038 1091 1121 1140 1177 1215 1210 1211 1180 1148 1151 1154 1194 1246 1302 1409 1454 1490 1531 1547 1567 1582 1590 1594 1601 1648 1681 1724 1737 1746 1748 1754 1813 1837 1853 1862 1940 1981 2011 2032 2041 2057 2094 2125 2149 2162 2186 2247 2273 2278 2237 2252 2274 2287 2316 2330 2348 2374 2392 2408 2425 2391 2401 2406 2402 2417 2430 2436 2451 2489 2513 2471 2446 2410 
1628 1718 1764 1809 1867 1851 1841 1838 1889 1933 1977 1997 1977 1953 1930 1872 1840 1796 1656 1591 1596 1559 1467 1419 1374 1309 1288 1266 1240 1221 1238 1257 1285 1306 1327 1336 1357 1306 1272 1193 1157 1126 1070 1010 981 954 894 852 817 828 903 947 976 1008 1061 1086 1102 1136 1140 1138 1132 1117 1086 1088 1158 1207 1253 1302 1401 1443 1472 1503 1520 1535 1548 1563 1555 1561 1634 1662 1682 1688 1663 1655 1688 1744 1808 1813 1833 1929 1963 1987 2006 2001 2015 2048 2081 2099 2112 2177 2223 2247 2193 2132 2127 2143 2172 2199 2266 2291 2319 2333 2336 2345 2344 2356 2381 2382 2377 2394 2405 2420 2433 2462 2530 2496 2453 
1657 1709 1749 1806 1904 1912 1906 1919 1946 1978 1997 1984 1964 1935 1914 1851 1816 1768 1651 1589 1523 1475 1404 1358 1307 1268 1251 1240 1244 1273 1291 1300 1340 1352 1383 1392 1389 1344 1313 1231 1195 1161 1140 1081 1052 1024 966 934 855 820 868 914 943 1003 1029 1049 1066 1092 1097 1096 1095 1085 1057 1089 1165 1206 1242 1284 1362 1390 1413 1473 1491 1511 1520 1531 1516 1533 1617 1640 1653 1659 1633 1622 1658 1689 1716 1760 1815 1879 1895 1909 1908 1962 1980 2013 2039 2050 2072 2154 2198 2221 2173 2099 2085 2101 2133 2150 2163 2181 2195 2204 2216 2247 2263 2306 2344 2364 2355 2358 2388 2394 2401 2424 2532 2493 2448 
1668 1710 1757 1814 1948 1986 1995 2012 2009 1999 1986 1971 1946 1914 1860 1825 1783 1735 1634 1572 1510 1401 1373 1344 1332 1314 1319 1334 1356 1369 1392 1402 1451 1405 1434 1452 1426 1389 1356 1275 1237 1201 1175 1116 1086 1054 991 961 926 878 821 853 883 925 935 1004 1024 1051 1056 1058 1059 1043 1049 1088 1154 1192 1230 1302 1334 1356 1379 1421 1436 1436 1453 1447 1453 1517 1598 1617 1624 1626 1605 1591 1620 1661 1711 1756 1798 1840 1855 1866 1862 1887 1925 1944 1960 1995 2032 2132 2166 2190 2164 2075 2054 2060 2079 2098 2118 2136 2146 2164 2179 2202 2228 2235 2261 2335 2330 2303 2314 2374 2380 2403 2486 2453 2409 
1702 1758 1811 1859 1972 1991 1996 2004 1998 1985 1967 1933 1900 1858 1780 1754 1721 1704 1605 1546 1490 1396 1385 1386 1393 1376 1384 1391 1403 1417 1434 1463 1496 1528 1536 1533 1498 1465 1421 1321 1281 1247 1183 1150 1117 1081 1016 984 946 900 824 830 847 878 887 900 922 958 969 980 983 1019 1049 1080 1142 1178 1214 1276 1306 1328 1349 1392 1405 1405 1419 1406 1438 1483 1542 1561 1575 1568 1549 1558 1577 1667 1710 1741 1791 1798 1811 1818 1818 1857 1894 1910 1935 1968 2000 2052 2068 2065 2070 2045 2013 2027 2036 2053 2075 2097 2102 2113 2140 2173 2184 2201 2219 2307 2315 2292 2278 2315 2363 2390 2450 2401 2356 
1797 1780 1854 1961 1978 1988 1990 1990 1979 1969 1956 1916 1879 1829 1737 1710 1693 1649 1563 1513 1508 1498 1489 1435 1442 1441 1441 1449 1457 1466 1483 1507 1547 1577 1569 1515 1477 1442 1397 1338 1326 1317 1242 1187 1151 1102 1037 1004 972 876 831 828 833 838 847 859 890 909 927 947 964 1002 1031 1060 1115 1142 1171 1257 1285 1303 1326 1357 1371 1375 1377 1375 1418 1460 1511 1527 1541 1538 1523 1493 1516 1605 1637 1663 1704 1713 1765 1768 1784 1835 1858 1865 1897 1926 1933 1955 1964 1996 2014 2005 1985 1977 1985 1994 2016 2051 2053 2054 2106 2158 2159 2172 2190 2272 2299 2290 2274 2296 2358 2387 2431 2394 2344 
1813 1882 1926 1949 1960 1967 1973 1971 1961 1960 1933 1907 1868 1813 1700 1674 1670 1588 1574 1570 1571 1556 1550 1551 1561 1565 1556 1557 1570 1581 1542 1545 1604 1588 1540 1476 1426 1395 1357 1290 1276 1264 1214 1165 1121 1084 1004 968 924 854 855 893 873 876 867 854 849 867 887 918 935 984 1017 1073 1101 1128 1154 1210 1241 1263 1286 1301 1312 1320 1339 1366 1397 1430 1477 1490 1502 1510 1494 1467 1491 1570 1598 1623 1659 1674 1677 1668 1738 1766 1775 1780 1855 1862 1862 1872 1903 1962 1965 1953 1948 1956 1975 1984 2008 2054 2053 2053 2077 2151 2136 2129 2173 2213 2281 2285 2274 2288 2340 2424 2430 2386 2333 
1822 1892 1919 1940 1954 1962 1966 1967 1964 1956 1923 1880 1832 1802 1683 1659 1659 1648 1644 1641 1624 1618 1614 1609 1622 1629 1621 1623 1650 1651 1647 1621 1573 1515 1445 1382 1388 1345 1314 1237 1226 1214 1164 1132 1088 1043 968 930 891 876 904 943 985 992 976 959 917 893 855 872 907 961 999 1054 1084 1113 1136 1189 1217 1243 1262 1274 1287 1297 1299 1318 1341 1384 1400 1412 1460 1470 1460 1437 1499 1528 1555 1582 1615 1631 1635 1668 1695 1707 1712 1712 1720 1728 1743 1797 1838 1872 1919 1903 1911 1927 1960 1979 2003 2054 2056 2053 2073 2158 2135 2121 2159 2194 2235 2264 2288 2297 2332 2422 2400 2364 2316 
1830 1888 1905 1929 1946 1958 1961 1966 1972 1965 1922 1870 1816 1805 1740 1697 1695 1745 1755 1749 1681 1683 1682 1674 1681 1688 1694 1689 1715 1697 1656 1581 1532 1477 1414 1327 1309 1276 1180 1149 1113 1103 1119 1089 1042 963 929 896 875 927 959 991 1042 1038 1025 1008 965 940 912 891 865 895 941 998 1059 1088 1113 1157 1185 1215 1239 1249 1259 1265 1280 1290 1308 1342 1359 1375 1383 1393 1393 1388 1429 1444 1464 1536 1573 1587 1590 1638 1653 1648 1637 1652 1656 1676 1720 1754 1790 1818 1837 1829 1830 1883 1904 1925 1948 2045 2056 2053 2073 2152 2136 2119 2148 2176 2211 2255 2306 2317 2350 2425 2355 2310 2278 
1824 1849 1879 1914 1926 1952 1962 1966 1972 1979 1928 1880 1828 1804 1785 1766 1750 1785 1799 1800 1794 1797 1827 1834 1819 1830 1839 1765 1737 1665 1610 1539 1490 1439 1375 1284 1263 1234 1147 1116 1083 1056 1017 992 966 905 904 928 957 972 997 1025 1083 1081 1073 1057 1017 989 960 897 878 875 900 976 1000 1024 1072 1090 1106 1128 1174 1227 1239 1230 1255 1260 1274 1298 1315 1332 1344 1355 1364 1363 1393 1401 1418 1424 1469 1479 1486 1538 1548 1592 1573 1586 1599 1628 1679 1706 1736 1761 1798 1790 1798 1842 1869 1893 1917 1985 2025 2040 2096 2133 2138 2121 2137 2163 2198 2293 2320 2342 2376 2412 2341 2295 2267 
1794 1831 1863 1894 1918 1941 1959 1974 1987 2000 1964 1901 1861 1832 1832 1832 1824 1837 1844 1845 1843 1851 1876 1902 1890 1885 1843 1722 1648 1584 1534 1452 1415 1401 1352 1244 1215 1193 1113 1069 1043 1012 972 948 932 907 936 965 989 1049 1074 1106 1174 1185 1170 1100 1055 1033 1006 936 901 873 880 946 967 984 1034 1058 1070 1086 1137 1166 1160 1192 1195 1206 1210 1258 1274 1289 1310 1316 1328 1329 1356 1357 1358 1358 1397 1413 1422 1471 1491 1488 1471 1499 1522 1545 1586 1655 1681 1705 1755 1749 1765 1807 1836 1861 1888 1956 1995 2018 2068 2100 2115 2118 2110 2153 2203 2305 2357 2363 2396 2365 2319 2280 2231 
1768 1804 1827 1873 1913 1938 1964 1980 2000 2009 1997 1985 1966 1948 1941 1939 1933 1890 1897 1884 1882 1901 1918 1935 1890 1862 1802 1707 1621 1539 1492 1409 1384 1337 1239 1178 1133 1098 1040 1031 1002 960 940 923 916 939 966 997 1029 1089 1119 1152 1212 1227 1218 1191 1122 1080 1057 1009 981 898 879 904 921 947 993 1018 1046 1060 1102 1128 1131 1158 1162 1171 1177 1195 1205 1212 1234 1252 1251 1276 1318 1310 1295 1308 1341 1350 1350 1407 1437 1434 1443 1464 1494 1513 1552 1564 1577 1643 1668 1680 1696 1737 1797 1827 1854 1917 1951 1982 2035 2062 2079 2100 2102 2131 2194 2329 2383 2400 2414 2346 2320 2285 2220 
1701 1770 1816 1860 1903 1936 1973 1991 2015 2030 2017 2017 2007 1997 1993 1989 1984 1995 2011 2004 1971 1933 1915 1873 1842 1821 1762 1679 1619 1535 1462 1358 1340 1298 1210 1158 1099 1067 1014 981 955 934 943 955 978 1029 987 1031 1102 1125 1156 1187 1247 1254 1249 1200 1152 1110 1086 1040 1016 989 929 907 892 909 942 966 1021 1036 1065 1085 1106 1129 1128 1134 1146 1165 1165 1165 1184 1196 1198 1183 1204 1209 1188 1194 1211 1224 1291 1350 1386 1377 1410 1424 1458 1480 1526 1534 1539 1599 1623 1646 1660 1702 1693 1714 1779 1822 1878 1922 2011 2035 2047 2099 2103 2134 2180 2355 2406 2409 2419 2362 2330 2293 2219 
1660 1702 1790 1846 1899 1942 1999 2021 2029 2056 2042 2035 2040 2038 2033 2029 2019 2022 2061 2050 1950 1882 1848 1782 1747 1728 1710 1594 1561 1535 1457 1316 1285 1266 1157 1128 1073 1041 996 970 951 953 965 991 1022 1079 1105 1123 1195 1222 1241 1258 1278 1286 1283 1235 1186 1152 1124 1076 1042 1017 975 948 908 900 925 945 952 972 982 990 1016 1055 1093 1098 1127 1125 1116 1114 1125 1135 1140 1133 1134 1139 1135 1143 1152 1171 1180 1229 1275 1278 1310 1349 1417 1439 1485 1505 1513 1557 1586 1617 1634 1670 1666 1679 1754 1816 1867 1901 1975 2001 2018 2103 2141 2182 2205 2378 2426 2412 2420 2365 2335 2299 2216 
1644 1699 1794 1849 1907 1947 2012 2039 2062 2105 2102 2080 2091 2118 2062 2055 2047 2061 2071 2022 1911 1840 1787 1732 1699 1678 1659 1579 1521 1497 1373 1294 1211 1169 1100 1058 1048 993 983 966 955 980 992 1020 1069 1133 1165 1188 1246 1269 1281 1301 1362 1375 1365 1276 1231 1198 1154 1113 1080 1053 1001 981 956 924 903 910 916 935 945 958 980 1012 1017 1024 1030 1021 1018 1012 1071 1078 1081 1074 1067 1072 1085 1098 1106 1127 1150 1186 1213 1228 1263 1301 1331 1345 1389 1413 1446 1467 1552 1578 1604 1657 1661 1671 1755 1813 1852 1882 1953 1986 2016 2117 2183 2212 2269 2401 2432 2395 2314 2291 2268 2280 2202 
1628 1682 1790 1843 1898 1948 2024 2057 2083 2125 2130 2119 2110 2163 2139 2120 2124 2065 2004 1937 1866 1811 1745 1678 1652 1639 1622 1538 1494 1445 1355 1282 1210 1147 1064 1032 1008 1035 1043 1041 1037 1067 1070 1037 1146 1184 1219 1246 1294 1319 1328 1382 1409 1413 1381 1288 1244 1224 1230 1178 1143 1109 1071 1057 1037 966 926 913 910 923 929 936 946 964 970 979 978 974 975 977 983 993 999 1004 1016 1025 1026 1046 1065 1088 1109 1139 1162 1180 1226 1263 1289 1333 1355 1371 1402 1424 1449 1498 1608 1648 1668 1693 1755 1804 1834 1892 1935 1977 2019 2150 2201 2230 2276 2362 2395 2374 2289 2269 2252 2232 2163 
1604 1650 1773 1832 1877 1987 2033 2069 2102 2146 2163 2157 2195 2210 2190 2169 2117 2049 1981 1858 1798 1749 1690 1606 1579 1550 1535 1499 1458 1413 1323 1258 1198 1140 1044 1017 1039 1096 1109 1111 1095 1130 1138 1114 1151 1202 1263 1309 1396 1358 1382 1430 1447 1442 1396 1303 1268 1274 1243 1208 1176 1152 1114 1098 1078 1034 1010 987 970 946 979 970 949 950 959 958 966 982 993 1003 1025 1030 1037 1035 1057 1074 1083 1070 1057 1058 1049 1068 1100 1150 1199 1231 1256 1299 1322 1339 1358 1384 1418 1469 1593 1640 1671 1702 1764 1802 1836 1915 1959 2003 2069 2157 2179 2218 2286 2320 2356 2361 2291 2264 2242 2184 2109 
1593 1640 1742 1798 1845 1959 2017 2071 2127 2205 2218 2206 2232 2227 2215 2199 2088 2035 1970 1844 1790 1731 1670 1585 1547 1524 1484 1452 1410 1353 1263 1212 1168 1070 1035 1036 1086 1152 1165 1171 1149 1193 1196 1166 1166 1212 1257 1309 1424 1462 1500 1522 1501 1457 1418 1318 1312 1312 1258 1225 1211 1201 1158 1139 1126 1080 1056 1026 1006 964 974 1013 1014 1019 1030 1038 1050 1030 1049 1075 1086 1091 1093 1099 1108 1127 1142 1124 1109 1098 1072 1063 1069 1093 1149 1187 1214 1245 1262 1308 1314 1371 1420 1470 1584 1643 1680 1708 1776 1815 1854 1935 1975 2012 2061 2139 2162 2189 2246 2279 2326 2356 2295 2260 2237 2134 2076 
1584 1630 1742 1798 1852 1968 2029 2088 2143 2209 2183 2162 2150 2139 2132 2122 2008 2002 1942 1826 1764 1708 1652 1575 1531 1490 1452 1420 1384 1334 1226 1181 1133 1074 1110 1140 1171 1267 1310 1241 1227 1267 1269 1222 1202 1245 1291 1377 1423 1502 1556 1547 1516 1484 1448 1395 1402 1380 1301 1307 1306 1289 1202 1187 1174 1120 1095 1069 1047 991 979 1011 1044 1056 1069 1079 1095 1123 1151 1176 1202 1218 1223 1222 1163 1181 1198 1176 1169 1162 1114 1094 1076 1084 1118 1159 1183 1208 1220 1225 1308 1359 1405 1457 1582 1629 1680 1715 1793 1834 1871 1928 1961 2001 2045 2123 2149 2170 2227 2259 2305 2340 2258 2213 2169 2122 2121 
1573 1672 1735 1791 1858 1980 2044 2105 2183 2187 2142 2111 2101 2093 2083 2080 1973 1918 1873 1791 1741 1682 1622 1540 1524 1480 1413 1382 1349 1300 1192 1151 1104 1130 1135 1185 1219 1288 1342 1349 1353 1384 1364 1303 1271 1318 1332 1429 1449 1513 1580 1576 1548 1512 1434 1440 1435 1407 1354 1358 1352 1307 1297 1285 1272 1210 1180 1160 1094 1024 997 1019 1070 1090 1109 1124 1142 1169 1196 1224 1253 1277 1287 1283 1281 1283 1291 1272 1267 1244 1152 1126 1098 1073 1092 1126 1143 1167 1166 1190 1290 1343 1397 1452 1556 1591 1619 1732 1774 1806 1843 1912 1943 1993 2074 2102 2133 2155 2205 2240 2284 2314 2236 2204 2172 2159 2166 
1574 1679 1742 1805 1867 1993 2056 2112 2165 2166 2114 2073 2060 2044 2028 2034 1969 1890 1833 1764 1726 1679 1555 1508 1480 1449 1373 1322 1271 1197 1166 1121 1129 1195 1179 1210 1259 1316 1368 1395 1418 1452 1417 1335 1311 1354 1400 1507 1558 1577 1602 1623 1575 1537 1483 1488 1469 1431 1406 1406 1398 1365 1343 1330 1317 1264 1230 1204 1126 1078 1039 1048 1125 1155 1151 1179 1189 1220 1252 1260 1287 1333 1350 1345 1339 1345 1334 1318 1306 1280 1221 1187 1149 1105 1084 1079 1108 1135 1144 1182 1276 1329 1382 1436 1509 1550 1603 1717 1757 1802 1844 1898 1922 1958 2018 2055 2088 2113 2187 2221 2269 2273 2236 2211 2193 2205 2227 
1575 1682 1752 1812 1874 1997 2057 2114 2180 2156 2099 2059 2022 2011 1997 1999 1956 1882 1813 1724 1697 1664 1542 1485 1446 1425 1355 1319 1268 1177 1166 1180 1217 1294 1318 1292 1351 1368 1381 1419 1486 1472 1433 1329 1359 1387 1430 1548 1606 1633 1648 1633 1596 1562 1581 1576 1545 1507 1450 1449 1445 1413 1393 1376 1362 1309 1277 1245 1153 1101 1056 1057 1151 1188 1230 1278 1299 1328 1362 1366 1364 1365 1414 1406 1400 1402 1382 1357 1334 1280 1245 1207 1185 1132 1107 1086 1105 1113 1128 1161 1246 1295 1341 1411 1493 1550 1609 1717 1756 1800 1831 1862 1896 1936 2004 2042 2082 2099 2166 2200 2247 2302 2289 2301 2295 2257 2285 
1594 1699 1754 1808 1930 1988 2056 2118 2188 2166 2108 2064 2006 1998 1971 1924 1912 1865 1793 1668 1619 1636 1520 1465 1418 1382 1321 1287 1258 1188 1193 1231 1258 1343 1377 1372 1390 1450 1479 1502 1507 1459 1419 1369 1387 1427 1463 1568 1624 1675 1678 1641 1607 1594 1609 1602 1579 1547 1548 1543 1538 1510 1496 1469 1435 1349 1308 1275 1174 1117 1069 1080 1172 1218 1265 1333 1349 1379 1423 1417 1409 1433 1529 1537 1517 1492 1435 1384 1357 1303 1272 1242 1219 1163 1138 1103 1098 1109 1128 1155 1229 1275 1322 1436 1482 1533 1579 1660 1697 1767 1814 1842 1880 1917 1995 2036 2071 2091 2164 2203 2253 2331 2333 2347 2358 2390 2393 
1638 1756 1811 1877 2001 2009 2069 2131 2206 2177 2121 2046 2013 1979 1957 1876 1868 1839 1719 1646 1588 1547 1482 1424 1373 1337 1289 1257 1229 1203 1232 1277 1313 1377 1431 1443 1425 1473 1517 1556 1519 1473 1437 1469 1477 1486 1531 1633 1678 1707 1699 1669 1647 1632 1621 1611 1597 1591 1601 1599 1589 1549 1523 1483 1410 1377 1338 1303 1186 1129 1102 1155 1201 1246 1295 1379 1397 1432 1482 1467 1458 1464 1563 1571 1547 1515 1453 1419 1391 1338 1314 1288 1263 1188 1164 1126 1093 1105 1124 1147 1215 1259 1303 1405 1455 1504 1550 1646 1686 1721 1794 1835 1878 1923 2000 2033 2064 2125 2169 2216 2262 2357 2373 2384 2426 2434 2440 
1655 1774 1834 1898 2024 2088 2149 2193 2224 2214 2158 2046 2012 1962 1933 1850 1832 1805 1697 1618 1555 1511 1466 1416 1360 1304 1291 1282 1276 1259 1303 1362 1469 1425 1475 1491 1459 1499 1541 1589 1530 1489 1473 1534 1536 1518 1549 1667 1715 1758 1749 1730 1714 1695 1655 1622 1619 1632 1642 1637 1620 1569 1532 1488 1406 1367 1327 1282 1165 1124 1133 1214 1252 1310 1358 1421 1468 1490 1548 1523 1506 1504 1587 1594 1565 1500 1471 1441 1417 1367 1340 1309 1253 1220 1192 1162 1119 1120 1113 1119 1192 1235 1276 1397 1449 1494 1541 1615 1658 1699 1776 1828 1885 1936 1981 2006 2046 2099 2137 2178 2222 2307 2378 2397 2448 2461 2479 
1730 1787 1851 1916 2043 2111 2166 2203 2229 2229 2189 2080 2027 1981 1937 1858 1801 1754 1677 1587 1526 1489 1446 1405 1354 1307 1313 1333 1339 1301 1326 1387 1521 1557 1574 1589 1550 1586 1621 1573 1539 1508 1522 1576 1585 1565 1609 1675 1735 1783 1760 1743 1724 1694 1686 1685 1687 1690 1674 1643 1610 1547 1521 1478 1385 1346 1300 1254 1155 1142 1181 1267 1287 1328 1387 1460 1502 1570 1650 1638 1630 1615 1630 1638 1584 1517 1490 1468 1447 1398 1367 1332 1269 1236 1209 1195 1158 1159 1131 1133 1175 1219 1267 1382 1434 1455 1536 1573 1622 1656 1740 1803 1857 1900 1934 1963 2010 2071 2110 2153 2198 2260 2276 2300 2383 2396 2382 
1772 1816 1871 1935 2058 2124 2175 2225 2234 2235 2224 2101 2043 1993 1904 1848 1794 1733 1626 1554 1490 1454 1396 1379 1353 1329 1344 1376 1398 1361 1345 1398 1524 1588 1633 1661 1611 1639 1640 1571 1573 1586 1591 1654 1657 1644 1625 1684 1747 1793 1767 1747 1735 1717 1711 1723 1714 1694 1665 1632 1564 1527 1486 1438 1339 1295 1248 1163 1148 1184 1222 1319 1342 1357 1415 1512 1549 1615 1701 1704 1687 1670 1644 1666 1636 1565 1537 1510 1487 1428 1391 1352 1283 1260 1235 1215 1193 1202 1170 1130 1167 1212 1263 1370 1421 1447 1492 1533 1565 1597 1700 1742 1819 1868 1887 1934 1968 2049 2092 2145 2179 2197 2220 2251 2332 2347 2348 
1814 1856 1906 1960 2073 2127 2173 2230 2238 2241 2230 2128 2066 2005 1917 1874 1814 1748 1622 1564 1507 1439 1422 1432 1432 1438 1434 1441 1499 1481 1387 1414 1524 1583 1636 1697 1683 1685 1638 1596 1598 1607 1622 1693 1696 1669 1667 1713 1771 1823 1820 1800 1753 1747 1748 1750 1734 1682 1648 1617 1547 1504 1462 1413 1312 1273 1216 1178 1213 1252 1296 1378 1430 1447 1509 1564 1599 1648 1752 1760 1744 1701 1673 1694 1670 1593 1558 1524 1491 1422 1392 1377 1339 1318 1286 1261 1256 1241 1193 1131 1167 1212 1260 1358 1404 1439 1486 1517 1547 1587 1670 1702 1728 1794 1850 1901 1943 2022 2057 2118 2129 2147 2169 2209 2283 2308 2324 
1848 1880 1921 1970 2080 2127 2175 2232 2245 2243 2199 2089 2053 2016 1923 1879 1822 1751 1656 1614 1563 1496 1470 1494 1505 1503 1497 1497 1519 1528 1490 1491 1557 1609 1661 1776 1759 1697 1634 1617 1618 1628 1697 1733 1728 1690 1690 1735 1794 1839 1856 1839 1821 1778 1750 1719 1690 1628 1599 1596 1529 1483 1437 1384 1288 1246 1198 1213 1242 1287 1332 1430 1466 1502 1564 1633 1691 1731 1828 1835 1805 1720 1698 1720 1701 1622 1572 1531 1451 1420 1409 1410 1371 1346 1314 1285 1283 1268 1209 1134 1154 1195 1249 1344 1384 1417 1466 1494 1525 1568 1630 1667 1710 1803 1854 1900 1937 2006 2026 2034 2072 2092 2114 2143 2209 2274 2304 
1878 1898 1933 2028 2075 2123 2179 2235 2245 2242 2136 2078 2035 1992 1900 1835 1804 1781 1739 1712 1675 1557 1520 1552 1564 1572 1563 1565 1550 1568 1553 1559 1596 1636 1689 1796 1763 1706 1661 1676 1694 1693 1782 1777 1755 1722 1721 1758 1814 1893 1874 1842 1803 1729 1705 1688 1638 1605 1573 1548 1488 1443 1392 1294 1243 1219 1195 1245 1274 1318 1367 1474 1515 1553 1591 1658 1721 1762 1862 1870 1851 1776 1766 1742 1689 1605 1560 1528 1453 1442 1447 1441 1400 1372 1338 1306 1300 1277 1221 1146 1145 1179 1264 1298 1331 1360 1398 1447 1499 1589 1641 1688 1727 1815 1857 1892 1962 1983 1987 2006 2045 2065 2094 2110 2178 2221 2257 
1925 1942 1971 2043 2090 2134 2182 2230 2238 2238 2149 2081 2026 1982 1881 1804 1794 1786 1761 1739 1707 1623 1628 1661 1723 1735 1737 1656 1599 1610 1596 1601 1664 1686 1712 1818 1776 1726 1693 1710 1707 1710 1814 1863 1842 1838 1802 1814 1838 1893 1866 1824 1780 1711 1685 1668 1630 1598 1558 1520 1458 1413 1365 1272 1227 1221 1248 1314 1356 1389 1479 1510 1564 1601 1620 1684 1752 1853 1895 1905 1874 1796 1754 1717 1672 1593 1556 1530 1513 1515 1511 1488 1440 1394 1360 1330 1319 1290 1247 1165 1148 1161 1233 1267 1298 1320 1373 1416 1470 1572 1625 1672 1718 1806 1836 1862 1934 1943 1951 1974 2019 2043 2068 2114 2152 2202 2228 
1959 1954 1980 2046 2083 2121 2150 2192 2203 2214 2194 2096 2033 1983 1858 1798 1794 1804 1790 1772 1738 1657 1679 1714 1788 1812 1817 1782 1718 1688 1654 1721 1759 1754 1774 1842 1790 1747 1711 1729 1719 1726 1830 1884 1896 1881 1841 1841 1854 1855 1817 1792 1770 1732 1705 1674 1627 1601 1567 1527 1436 1381 1331 1257 1225 1246 1279 1358 1406 1432 1490 1554 1631 1694 1719 1750 1816 1925 1928 1929 1888 1777 1736 1706 1637 1611 1579 1566 1549 1551 1539 1487 1458 1432 1407 1383 1374 1364 1336 1238 1168 1160 1196 1225 1256 1271 1337 1382 1431 1534 1585 1632 1696 1788 1814 1835 1858 1882 1905 1931 1975 2001 2051 2102 2133 2181 2207 
1962 1957 1973 2033 2063 2097 2123 2170 2186 2198 2186 2120 2054 1982 1834 1795 1794 1795 1808 1794 1768 1685 1721 1762 1840 1878 1880 1828 1756 1718 1697 1726 1770 1816 1869 1883 1822 1775 1749 1762 1739 1742 1837 1905 1933 1891 1872 1871 1870 1841 1814 1794 1756 1741 1717 1685 1631 1601 1566 1529 1429 1382 1334 1250 1239 1270 1309 1395 1451 1482 1502 1568 1640 1698 1771 1786 1851 1966 1965 1908 1848 1750 1735 1709 1653 1632 1618 1601 1580 1574 1561 1509 1479 1453 1433 1417 1407 1399 1346 1280 1221 1202 1219 1207 1194 1242 1306 1356 1400 1488 1532 1590 1671 1755 1778 1792 1831 1866 1895 1923 1965 1984 2016 2063 2100 2151 2196 
1958 1958 1958 2002 2032 2060 2118 2145 2157 2171 2169 2107 2042 1905 1832 1796 1794 1794 1798 1792 1792 1797 1802 1812 1886 1938 1919 1866 1789 1757 1759 1760 1784 1821 1878 1879 1830 1795 1762 1771 1762 1783 1883 1948 1967 1915 1896 1885 1880 1851 1832 1808 1766 1749 1724 1694 1626 1592 1558 1472 1415 1362 1308 1255 1287 1322 1413 1473 1494 1529 1532 1567 1638 1770 1821 1840 1888 2002 1950 1889 1833 1760 1741 1727 1726 1718 1708 1679 1635 1608 1573 1528 1497 1470 1462 1450 1441 1428 1373 1306 1239 1230 1256 1242 1231 1224 1272 1319 1362 1440 1483 1542 1687 1713 1738 1760 1813 1835 1865 1921 1941 1973 2000 2046 2082 2135 2228 
1959 1958 1960 1988 2015 2037 2078 2099 2133 2159 2153 2085 2025 1914 1845 1802 1794 1793 1792 1786 1795 1819 1845 1869 1969 1975 1936 1855 1833 1837 1813 1806 1813 1826 1925 1885 1841 1823 1777 1779 1779 1809 1908 1967 1976 1936 1928 1919 1906 1884 1853 1827 1778 1751 1714 1680 1605 1576 1538 1445 1389 1336 1285 1272 1311 1352 1441 1499 1569 1618 1661 1641 1659 1789 1857 1892 1937 2019 1946 1884 1809 1778 1774 1761 1768 1746 1731 1698 1667 1632 1606 1565 1552 1540 1536 1517 1497 1453 1374 1302 1250 1274 1301 1282 1269 1245 1261 1301 1334 1415 1462 1515 1605 1642 1681 1706 1736 1758 1801 1894 1923 1954 1992 2045 2072 2123 2212 
1995 1990 1970 1985 2005 2024 2065 2090 2135 2184 2159 2116 2074 1998 1954 1830 1801 1793 1796 1791 1801 1829 1866 1902 1979 1961 1923 1851 1833 1840 1865 1891 1890 1880 1927 1897 1866 1838 1802 1798 1812 1883 1931 1975 1991 1952 1941 1930 1893 1879 1859 1828 1762 1722 1680 1638 1549 1522 1472 1411 1359 1311 1269 1298 1342 1387 1475 1513 1582 1634 1716 1709 1702 1796 1862 1925 1979 2034 1974 1929 1858 1813 1813 1801 1789 1767 1753 1721 1690 1655 1635 1606 1590 1577 1551 1530 1496 1456 1341 1287 1309 1407 1410 1333 1307 1274 1266 1277 1308 1386 1437 1488 1557 1604 1637 1653 1709 1756 1807 1893 1922 1954 1986 2055 2087 2123 2203 
2037 2028 1994 2001 2015 2033 2073 2105 2152 2204 2179 2150 2117 2028 1995 1950 1882 1813 1818 1841 1878 1849 1874 1906 1971 1936 1900 1833 1832 1834 1859 1916 1923 1916 1936 1910 1899 1889 1881 1863 1858 1917 1979 1995 2011 1963 1955 1933 1899 1872 1843 1811 1738 1692 1651 1577 1530 1473 1438 1346 1298 1271 1309 1349 1387 1420 1530 1541 1583 1646 1769 1785 1774 1817 1880 1941 1994 2050 2000 1958 1894 1873 1860 1849 1817 1805 1812 1740 1716 1696 1676 1639 1623 1605 1562 1525 1473 1429 1320 1310 1359 1451 1457 1431 1396 1337 1314 1293 1315 1375 1419 1455 1523 1557 1587 1667 1720 1771 1815 1896 1928 1963 1984 2046 2079 2110 2179 
2113 2133 2052 2066 2094 2068 2115 2137 2169 2196 2178 2155 2125 2040 2014 1968 1858 1826 1817 1838 1902 1920 1917 1971 1919 1888 1872 1832 1832 1832 1893 1930 1964 1954 1939 1930 1926 1915 1900 1880 1879 1941 2011 2053 2034 1963 1932 1909 1876 1862 1814 1786 1707 1663 1624 1554 1510 1456 1400 1317 1284 1273 1331 1379 1421 1477 1605 1651 1665 1712 1768 1845 1849 1847 1913 1983 2073 2061 2023 1979 1921 1901 1888 1878 1857 1826 1809 1747 1711 1693 1644 1577 1568 1535 1534 1489 1440 1394 1315 1350 1403 1495 1491 1467 1432 1370 1346 1318 1299 1328 1358 1386 1454 1509 1574 1707 1743 1787 1829 1910 1937 1962 1990 2016 2048 2087 2173 
2148 2153 2078 2079 2096 2141 2200 2243 2236 2131 2099 2101 2118 2045 2034 1990 1872 1834 1815 1832 1898 1934 1955 1976 1907 1881 1885 1846 1845 1847 1895 1947 1997 2005 1961 1962 1957 1939 1918 1900 1900 1966 2028 2046 1975 1942 1913 1888 1856 1828 1789 1740 1648 1612 1576 1484 1478 1431 1375 1305 1279 1286 1358 1407 1458 1513 1628 1691 1719 1743 1779 1848 1918 1972 1989 2045 1982 1967 2003 1995 1959 1939 1921 1879 1859 1788 1743 1677 1639 1617 1537 1510 1496 1477 1429 1400 1364 1384 1414 1447 1448 1536 1526 1499 1468 1402 1381 1354 1317 1318 1338 1364 1445 1496 1561 1688 1738 1784 1820 1850 1872 1897 1974 2002 2040 2078 2169 
2169 2157 2147 2126 2125 2212 2244 2266 2213 2119 2062 2055 2054 2038 2041 2032 1933 1879 1825 1825 1892 1926 1957 1996 1925 1903 1905 1904 1870 1868 1916 1955 1994 2021 2017 2013 2007 1974 1959 1943 1910 1968 2018 2019 1937 1904 1885 1868 1834 1805 1771 1681 1627 1585 1539 1448 1409 1366 1297 1286 1301 1338 1389 1438 1490 1545 1658 1722 1772 1795 1809 1848 1923 2040 2034 2040 1955 1909 1889 1887 1897 1883 1848 1758 1788 1747 1677 1621 1589 1552 1478 1456 1435 1412 1385 1366 1359 1424 1451 1490 1538 1625 1609 1572 1518 1491 1422 1400 1343 1330 1333 1388 1430 1480 1543 1670 1719 1753 1775 1817 1848 1886 1961 1983 2027 2073 2157 
2161 2173 2211 2199 2181 2234 2277 2249 2194 2108 2054 2020 2018 2024 2035 2037 1970 1906 1853 1831 1853 1880 1912 2001 1978 1965 1957 1947 1907 1895 1926 1947 1983 2032 2044 2034 2021 1997 1980 1958 1939 1969 1989 1946 1882 1854 1855 1847 1809 1770 1735 1666 1623 1571 1514 1418 1377 1337 1292 1307 1326 1364 1455 1508 1562 1668 1734 1793 1819 1851 1858 1886 1992 2011 2005 1978 1930 1875 1838 1832 1849 1817 1790 1686 1663 1628 1584 1503 1474 1443 1386 1406 1383 1369 1357 1362 1389 1464 1497 1536 1584 1664 1650 1613 1550 1526 1505 1474 1385 1364 1361 1370 1411 1472 1528 1644 1692 1725 1776 1811 1849 1883 1955 1984 2021 2107 2149 
2172 2182 2234 2262 2270 2290 2254 2230 2203 2105 2049 2001 2006 2014 2027 2035 1986 1931 1878 1831 1844 1867 1903 1988 2031 2075 2046 2023 1986 1975 1983 1972 2007 2072 2066 2052 2035 2007 1990 1969 1960 2001 1982 1950 1884 1857 1824 1808 1752 1722 1691 1613 1570 1548 1493 1397 1357 1326 1306 1334 1357 1391 1486 1544 1600 1704 1780 1839 1890 1970 1980 2006 1972 1925 1908 1934 1880 1837 1792 1777 1781 1757 1720 1636 1600 1568 1484 1456 1423 1393 1363 1359 1360 1359 1366 1396 1441 1507 1546 1586 1632 1710 1686 1636 1567 1543 1520 1485 1423 1403 1386 1381 1425 1464 1513 1623 1673 1715 1773 1810 1847 1874 1942 1981 2020 2102 2144 
2202 2216 2235 2266 2282 2292 2259 2231 2218 2105 2057 2016 1995 1995 1993 2020 1986 1949 1902 1847 1845 1864 1903 1991 2030 2078 2087 2057 2045 2041 2044 2058 2079 2123 2128 2111 2079 2022 2004 1994 1962 1981 1965 1938 1881 1850 1807 1764 1727 1690 1658 1575 1538 1491 1392 1350 1322 1309 1346 1356 1387 1422 1521 1582 1639 1752 1824 1880 1936 2022 2045 2069 1975 1919 1866 1846 1779 1748 1718 1674 1662 1710 1666 1592 1546 1513 1442 1415 1391 1367 1362 1361 1362 1368 1387 1419 1462 1571 1620 1675 1771 1748 1684 1645 1567 1541 1523 1485 1467 1445 1409 1388 1425 1462 1508 1610 1661 1701 1742 1763 1807 1845 1941 1991 2034 2101 2141 
2236 2244 2258 2283 2292 2285 2256 2239 2193 2121 2064 2032 2001 2008 2014 1969 1959 1933 1896 1853 1852 1868 1904 1999 2037 2075 2119 2107 2105 2099 2083 2118 2134 2153 2152 2142 2113 2085 2048 2014 1935 1907 1904 1910 1865 1839 1797 1739 1704 1663 1627 1551 1503 1457 1369 1334 1320 1323 1375 1414 1451 1522 1580 1632 1691 1802 1863 1919 2041 2065 2077 2057 1982 1919 1854 1806 1743 1700 1671 1625 1612 1602 1575 1512 1477 1446 1391 1384 1367 1364 1364 1364 1371 1384 1410 1444 1487 1586 1642 1707 1770 1729 1677 1639 1606 1588 1577 1563 1547 1516 1441 1397 1418 1453 1548 1599 1640 1668 1732 1768 1812 1900 1950 2000 2038 2110 2148 
2310 2317 2314 2316 2320 2293 2265 2255 2221 2156 2095 2057 2019 2020 2036 1951 1931 1911 1887 1856 1868 1889 1972 2016 2047 2072 2115 2135 2138 2117 2119 2173 2196 2184 2152 2125 2097 2039 2002 1965 1913 1879 1864 1847 1795 1794 1769 1680 1636 1602 1600 1517 1480 1425 1349 1330 1333 1344 1405 1450 1491 1550 1600 1659 1721 1866 1935 2007 2071 2016 1991 1964 1957 1910 1850 1744 1707 1667 1627 1568 1563 1546 1509 1480 1450 1421 1377 1367 1367 1366 1371 1385 1408 1448 1438 1473 1520 1615 1671 1742 1764 1722 1680 1651 1632 1624 1615 1606 1584 1541 1503 1451 1435 1458 1523 1567 1621 1659 1744 1786 1830 1911 1956 2008 2051 2130 2164 
2304 2357 2348 2343 2349 2339 2315 2297 2271 2243 2197 2131 2038 2041 2051 1972 1923 1893 1883 1875 1898 1920 1991 2027 2055 2074 2104 2117 2144 2212 2212 2246 2244 2200 2131 2087 2012 1987 1960 1926 1884 1855 1821 1793 1764 1754 1737 1658 1615 1572 1535 1459 1411 1377 1333 1340 1346 1368 1436 1484 1531 1598 1622 1685 1751 1900 1969 2043 2061 2014 1972 1938 1892 1857 1806 1691 1642 1596 1589 1531 1515 1493 1474 1454 1427 1402 1370 1369 1373 1382 1395 1412 1436 1482 1514 1558 1657 1708 1758 1809 1768 1728 1696 1673 1663 1661 1658 1642 1608 1556 1523 1474 1455 1461 1524 1561 1606 1650 1752 1808 1858 1968 1981 2025 2068 2148 2184 
2274 2363 2374 2375 2389 2390 2350 2327 2296 2272 2219 2106 2096 2096 2101 2004 1948 1914 1885 1893 1924 1945 2000 2033 2057 2074 2092 2106 2133 2239 2258 2275 2249 2177 2144 2078 1953 1923 1896 1870 1851 1826 1791 1758 1733 1721 1705 1632 1596 1551 1461 1429 1396 1362 1345 1371 1403 1471 1497 1539 1596 1697 1676 1720 1865 1933 2005 2064 2040 2003 1968 1930 1859 1831 1784 1666 1614 1570 1532 1471 1457 1440 1418 1405 1405 1386 1378 1380 1392 1415 1429 1452 1480 1530 1550 1599 1700 1752 1809 1829 1797 1774 1763 1748 1744 1742 1737 1670 1624 1577 1523 1490 1478 1473 1519 1554 1601 1693 1748 1804 1860 1984 2033 2074 2114 2175 2209 
2239 2327 2380 2403 2450 2454 2392 2358 2311 2282 2218 2142 2118 2115 2131 2037 1980 1947 1931 1944 1955 1969 2003 2029 2054 2073 2084 2100 2127 2219 2246 2264 2234 2138 2098 2051 1941 1910 1884 1854 1801 1770 1739 1688 1673 1667 1678 1607 1567 1523 1440 1401 1377 1352 1371 1404 1447 1502 1540 1559 1610 1733 1784 1809 1917 1991 2044 2026 1978 1980 1942 1865 1829 1798 1754 1652 1596 1548 1473 1448 1440 1427 1407 1408 1420 1424 1433 1453 1469 1504 1535 1510 1534 1584 1595 1618 1742 1805 1863 1891 1836 1817 1809 1791 1783 1775 1756 1678 1653 1616 1554 1543 1531 1495 1524 1552 1595 1682 1732 1793 1849 1974 2033 2084 2170 2197 2233 
2223 2295 2329 2355 2404 2454 2475 2442 2354 2287 2221 2150 2136 2135 2145 2093 2038 1996 1983 1981 1986 1991 2013 2030 2048 2061 2059 2071 2092 2146 2170 2225 2156 2111 2056 2021 1946 1908 1871 1816 1782 1748 1712 1650 1634 1629 1613 1549 1511 1476 1405 1380 1368 1355 1398 1435 1486 1545 1577 1597 1629 1748 1813 1861 1957 2021 2026 1999 1948 1918 1899 1850 1812 1761 1711 1636 1589 1540 1459 1435 1425 1419 1420 1443 1465 1478 1486 1507 1521 1551 1585 1648 1688 1712 1709 1709 1810 1860 1916 1919 1876 1858 1851 1831 1818 1802 1763 1693 1674 1632 1595 1575 1559 1545 1549 1558 1596 1683 1733 1784 1835 1953 2022 2088 2199 2233 2276 
2220 2244 2276 2292 2355 2396 2443 2459 2378 2331 2286 2191 2171 2170 2176 2135 2093 2057 2037 2024 2032 2039 2037 2039 2046 2048 2039 2047 2067 2106 2128 2141 2115 2083 2054 2016 1938 1906 1873 1802 1765 1728 1693 1623 1604 1594 1555 1519 1485 1454 1391 1378 1386 1430 1462 1508 1553 1637 1649 1643 1662 1757 1827 1892 1997 2025 1998 1972 1913 1878 1867 1830 1793 1739 1691 1593 1560 1524 1451 1431 1418 1414 1441 1476 1510 1544 1549 1561 1577 1611 1633 1703 1771 1776 1759 1756 1852 1934 1979 1967 1956 1938 1923 1866 1848 1819 1751 1718 1691 1661 1618 1596 1581 1572 1569 1572 1604 1689 1736 1790 1843 1938 1995 2054 2182 2250 2318 
2175 2196 2222 2258 2313 2358 2405 2432 2384 2370 2340 2216 2199 2191 2182 2180 2181 2177 2126 2106 2108 2069 2068 2052 2046 2032 2008 2014 2035 2064 2086 2102 2093 2076 2057 2020 1935 1910 1875 1791 1751 1718 1689 1609 1577 1560 1527 1491 1462 1433 1390 1395 1411 1472 1512 1555 1595 1684 1699 1723 1761 1783 1833 1904 2032 2011 1979 1915 1876 1840 1816 1794 1758 1716 1675 1574 1532 1504 1443 1427 1420 1432 1471 1510 1561 1646 1676 1700 1635 1672 1695 1763 1855 1842 1813 1804 1900 1970 2013 2003 1986 1967 1954 1911 1883 1851 1769 1740 1726 1712 1644 1630 1616 1595 1594 1597 1619 1702 1746 1792 1895 1942 1986 2048 2181 2247 2309 
2119 2130 2151 2173 2239 2265 2356 2400 2353 2329 2330 2258 2239 2234 2207 2209 2212 2212 2169 2138 2126 2092 2078 2037 2012 1989 1964 1942 2004 2028 2047 2057 2065 2058 2051 1970 1936 1910 1875 1794 1759 1730 1693 1610 1568 1531 1464 1447 1428 1417 1395 1414 1437 1510 1553 1596 1640 1726 1769 1769 1796 1802 1842 1911 2035 2001 1969 1897 1863 1833 1798 1740 1732 1696 1617 1564 1516 1482 1438 1428 1424 1452 1478 1518 1566 1665 1703 1736 1787 1793 1824 1875 1974 1963 1866 1851 1948 2007 2044 2035 2016 2001 1987 1933 1906 1870 1789 1771 1755 1744 1725 1714 1707 1662 1660 1656 1635 1724 1760 1801 1911 1958 2003 2058 2183 2238 2297 
2102 2113 2124 2138 2190 2211 2265 2341 2285 2227 2215 2213 2270 2256 2233 2235 2241 2230 2202 2156 2117 2070 2065 2021 1997 1964 1941 1910 1929 1955 1966 1972 1991 1990 2017 1978 1947 1909 1871 1795 1766 1734 1660 1615 1567 1527 1457 1440 1425 1420 1438 1466 1506 1597 1639 1685 1690 1780 1824 1816 1840 1838 1857 1920 2026 1990 1960 1885 1855 1822 1787 1733 1696 1658 1612 1569 1525 1485 1436 1430 1428 1454 1480 1527 1572 1670 1715 1751 1820 1842 1868 1910 2000 2008 1985 1999 2061 2101 2119 2095 2052 2031 1989 1956 1930 1893 1833 1813 1793 1784 1769 1764 1756 1702 1696 1690 1686 1739 1780 1816 1919 1987 2028 2077 2186 2229 2275 
2075 2079 2093 2144 2156 2190 2252 2309 2255 2193 2152 2154 2160 2158 2144 2168 2183 2190 2196 2143 2084 2048 2040 2001 1990 1936 1912 1883 1883 1909 1925 1934 1951 1957 1960 1937 1922 1914 1886 1823 1778 1744 1664 1616 1564 1523 1459 1436 1426 1440 1460 1494 1540 1634 1676 1731 1840 1892 1915 1904 1914 1909 1885 2008 2010 1973 1945 1869 1836 1808 1782 1727 1694 1657 1590 1561 1528 1492 1443 1447 1444 1472 1499 1541 1566 1668 1715 1752 1827 1864 1896 1930 2001 2025 2033 2058 2120 2159 2170 2131 2111 2089 2044 2023 1998 1971 1910 1854 1834 1821 1818 1811 1795 1743 1736 1728 1739 1764 1788 1825 1915 1983 2045 2099 2190 2191 2185 
2007 2022 2066 2106 2130 2179 2234 2265 2223 2164 2100 2096 2100 2097 2094 2125 2139 2154 2132 2089 2037 1983 1977 1973 1925 1908 1882 1843 1848 1863 1869 1899 1912 1928 1935 1926 1907 1899 1883 1815 1779 1728 1633 1598 1561 1529 1474 1442 1439 1464 1487 1520 1570 1668 1702 1754 1878 1941 1965 1946 1958 1947 1961 2039 2009 1976 1947 1876 1841 1799 1745 1714 1686 1650 1585 1550 1517 1461 1449 1452 1448 1480 1515 1561 1586 1635 1679 1726 1803 1841 1881 1934 1972 1997 2019 2072 2115 2158 2177 2175 2149 2120 2076 2054 2033 2003 1951 1926 1925 1917 1910 1889 1856 1783 1780 1778 1783 1803 1818 1839 1922 1977 2046 2173 2192 2161 2139 
1990 2003 2003 2036 2080 2126 2154 2158 2126 2125 2060 2050 2061 2046 2052 2081 2095 2105 2099 2055 2014 1948 1941 1945 1906 1878 1842 1807 1782 1792 1811 1855 1873 1893 1903 1915 1899 1888 1838 1800 1752 1699 1615 1590 1561 1514 1497 1486 1480 1515 1544 1581 1631 1710 1746 1782 1909 1985 1999 1994 2003 1998 2017 2052 2017 1991 1963 1875 1842 1808 1741 1704 1657 1611 1542 1538 1509 1466 1453 1454 1449 1490 1527 1574 1612 1622 1656 1697 1772 1805 1838 1873 1889 1915 1939 2014 2048 2115 2194 2219 2182 2145 2108 2086 2065 2044 1994 1968 1969 1956 1943 1917 1883 1880 1882 1866 1866 1881 1897 1868 1936 1980 2045 2176 2177 2135 2097 
1970 1979 1980 2011 2049 2080 2092 2103 2072 2041 1994 1985 1959 1966 1992 2039 2051 2062 2053 2016 1978 1913 1900 1901 1883 1868 1838 1796 1755 1765 1782 1792 1795 1812 1845 1866 1868 1873 1816 1777 1721 1672 1601 1579 1559 1536 1525 1513 1508 1540 1573 1615 1720 1773 1833 1874 1940 2001 2070 2040 2055 2076 2093 2042 2009 1980 1960 1881 1843 1802 1730 1696 1648 1605 1535 1499 1474 1463 1470 1468 1468 1504 1542 1584 1638 1625 1629 1663 1729 1753 1789 1858 1889 1918 1943 2012 2038 2061 2167 2212 2216 2197 2162 2150 2107 2058 2026 2007 2001 1980 1968 1952 1913 1922 1913 1897 1904 1929 1935 1953 1986 2024 2077 2181 2153 2094 2071 
1944 1953 1955 1971 2001 2033 2043 2057 2035 1998 1954 1954 1927 1940 1958 1969 1974 1970 1965 1931 1852 1864 1857 1855 1839 1845 1826 1786 1734 1741 1751 1769 1769 1782 1805 1838 1844 1836 1789 1760 1715 1660 1598 1588 1565 1567 1555 1539 1533 1562 1595 1639 1760 1820 1877 1929 1983 2015 2061 2146 2115 2084 2045 1986 1950 1923 1905 1878 1841 1788 1714 1679 1634 1557 1524 1494 1471 1468 1479 1484 1487 1543 1582 1625 1690 1673 1645 1649 1718 1761 1791 1855 1883 1908 1931 1997 2018 2039 2141 2192 2230 2235 2193 2180 2169 2115 2088 2068 2057 2048 2006 1992 1961 1964 1955 1937 1952 1983 1983 1997 2017 2051 2094 2175 2130 2068 1986 
1907 1902 1900 1895 1913 1926 1999 2015 1999 1944 1908 1916 1905 1914 1931 1937 1940 1940 1926 1890 1811 1786 1773 1768 1773 1782 1768 1710 1713 1715 1727 1747 1751 1765 1799 1816 1826 1822 1776 1758 1724 1680 1634 1618 1620 1639 1622 1612 1596 1606 1613 1653 1767 1843 1916 1977 2027 2023 2053 2114 2068 2049 2028 1965 1935 1905 1853 1829 1802 1758 1679 1643 1619 1543 1513 1484 1468 1480 1493 1505 1532 1564 1602 1644 1709 1699 1668 1687 1712 1746 1774 1824 1839 1858 1910 1966 1993 2026 2130 2190 2243 2276 2222 2201 2185 2145 2127 2114 2107 2089 2088 2075 2047 2044 2037 2020 2024 2059 2038 2040 2054 2083 2117 2180 2110 2052 1956 
1897 1891 1884 1866 1875 1874 1905 1918 1919 1880 1830 1834 1877 1892 1897 1902 1904 1908 1900 1876 1769 1761 1752 1746 1747 1742 1729 1678 1660 1647 1668 1703 1721 1725 1763 1792 1813 1811 1770 1753 1723 1681 1666 1653 1666 1675 1653 1647 1614 1621 1646 1686 1818 1881 1950 2103 2054 2048 2081 2094 2068 2049 2027 1960 1927 1901 1838 1802 1784 1747 1663 1623 1586 1521 1495 1486 1492 1506 1506 1525 1551 1583 1618 1659 1725 1728 1708 1683 1704 1728 1755 1792 1804 1823 1871 1909 1952 2000 2117 2170 2223 2287 2252 2228 2209 2182 2180 2183 2138 2135 2135 2118 2089 2081 2073 2059 2151 2157 2138 2129 2158 2170 2181 2193 2110 2039 1930 
1887 1880 1876 1850 1839 1833 1862 1876 1883 1819 1800 1789 1817 1828 1821 1830 1857 1858 1878 1859 1753 1740 1731 1726 1723 1720 1699 1655 1630 1621 1643 1691 1701 1697 1714 1756 1790 1789 1763 1749 1722 1716 1716 1709 1710 1706 1691 1679 1641 1641 1666 1704 1830 1890 1965 2144 2146 2157 2157 2111 2086 2057 2001 1962 1930 1905 1836 1789 1760 1687 1645 1609 1576 1524 1512 1510 1513 1529 1553 1577 1605 1614 1648 1688 1759 1753 1744 1692 1693 1709 1736 1771 1782 1802 1864 1907 1950 1985 2093 2144 2201 2311 2328 2309 2283 2264 2307 2266 2193 2184 2179 2167 2135 2131 2119 2180 2216 2212 2192 2193 2204 2200 2214 2187 2108 2026 1905 
1900 1871 1851 1830 1802 1790 1815 1833 1843 1791 1779 1764 1787 1803 1798 1803 1832 1837 1830 1811 1724 1710 1691 1688 1683 1692 1666 1617 1600 1603 1649 1665 1670 1665 1697 1732 1767 1791 1763 1758 1753 1762 1784 1794 1789 1768 1750 1706 1672 1666 1687 1723 1831 1896 1987 2172 2222 2235 2192 2116 2094 2067 2003 1966 1935 1907 1826 1781 1738 1659 1623 1591 1566 1547 1542 1540 1547 1555 1575 1595 1623 1626 1663 1742 1778 1803 1798 1748 1723 1714 1721 1757 1782 1808 1869 1916 1960 1998 2078 2124 2176 2295 2347 2355 2319 2302 2362 2389 2294 2273 2255 2242 2238 2181 2178 2238 2276 2268 2253 2257 2245 2215 2189 2148 2107 2039 1896 
1926 1882 1832 1799 1754 1725 1733 1747 1760 1767 1760 1738 1765 1782 1775 1776 1811 1815 1800 1780 1699 1687 1671 1660 1650 1633 1608 1572 1582 1589 1611 1633 1640 1646 1703 1737 1766 1790 1772 1762 1774 1793 1813 1827 1801 1795 1783 1767 1728 1715 1729 1761 1892 1918 1998 2180 2262 2253 2210 2134 2114 2079 2002 1973 1941 1907 1839 1789 1732 1629 1593 1576 1567 1569 1582 1570 1578 1583 1597 1614 1634 1644 1679 1761 1800 1824 1820 1773 1752 1736 1739 1760 1790 1822 1918 1978 2014 2058 2089 2125 2161 2275 2339 2384 2356 2353 2410 2420 2327 2313 2298 2287 2293 2289 2285 2334 2356 2358 2345 2292 2246 2196 2139 2098 2074 2014 1879 
1931 1889 1812 1789 1749 1705 1700 1700 1718 1720 1705 1684 1739 1738 1729 1753 1788 1779 1750 1731 1665 1656 1650 1632 1619 1603 1579 1560 1557 1573 1609 1621 1635 1657 1718 1756 1787 1809 1788 1774 1788 1831 1842 1850 1825 1817 1813 1798 1763 1744 1754 1841 1918 1996 2069 2233 2235 2208 2157 2150 2124 2098 2029 1996 1960 1869 1833 1780 1721 1625 1592 1576 1570 1578 1594 1604 1617 1629 1648 1662 1679 1688 1695 1778 1818 1845 1836 1791 1779 1765 1754 1784 1816 1851 1994 2050 2092 2110 2133 2149 2172 2247 2290 2328 2366 2396 2439 2449 2369 2356 2343 2369 2369 2354 2342 2385 2391 2397 2384 2288 2215 2141 2029 2010 1957 1909 1839 
1908 1879 1808 1776 1752 1697 1676 1664 1674 1697 1673 1654 1708 1711 1699 1710 1719 1708 1678 1608 1590 1591 1618 1608 1587 1570 1533 1537 1551 1577 1620 1639 1657 1677 1735 1764 1794 1845 1847 1848 1863 1877 1891 1904 1853 1846 1836 1827 1791 1778 1778 1868 1946 2031 2099 2238 2204 2180 2125 2114 2090 2062 1995 1968 1929 1847 1828 1777 1714 1620 1597 1584 1578 1589 1604 1612 1645 1664 1684 1704 1702 1712 1729 1813 1858 1900 1896 1851 1805 1798 1789 1818 1851 1899 2048 2105 2149 2142 2151 2181 2209 2263 2293 2322 2389 2419 2472 2509 2472 2452 2402 2431 2423 2408 2400 2425 2430 2428 2350 2271 2188 2117 1990 1957 1928 1860 1842 
1843 1827 1794 1779 1733 1654 1658 1644 1635 1662 1642 1621 1678 1675 1670 1685 1691 1673 1641 1562 1550 1555 1550 1538 1523 1520 1548 1580 1573 1598 1645 1661 1681 1734 1756 1782 1809 1867 1873 1875 1911 1913 1920 1934 1889 1885 1879 1872 1818 1806 1805 1902 1976 2051 2135 2218 2189 2156 2105 2069 2049 2031 1944 1903 1880 1809 1781 1747 1707 1633 1622 1616 1590 1603 1611 1620 1676 1705 1732 1753 1739 1737 1757 1833 1876 1916 1937 1912 1899 1893 1890 1918 1973 2096 2096 2148 2195 2189 2206 2251 2283 2316 2327 2346 2389 2415 2466 2519 2522 2506 2509 2516 2507 2502 2498 2503 2460 2434 2338 2241 2153 2090 1972 1929 1908 1870 1856 
1804 1773 1762 1741 1719 1628 1595 1576 1571 1585 1590 1558 1635 1636 1650 1659 1645 1626 1599 1526 1509 1520 1523 1511 1521 1546 1594 1642 1668 1683 1686 1708 1738 1771 1768 1791 1824 1896 1883 1885 1947 1960 1958 1943 1909 1890 1871 1835 1817 1824 1852 1948 2025 2100 2219 2184 2169 2139 2088 2052 2009 1986 1897 1857 1830 1776 1749 1722 1689 1637 1630 1625 1623 1625 1648 1680 1736 1779 1819 1796 1774 1763 1783 1857 1905 1941 1995 1991 1963 1941 1922 1950 2005 2147 2216 2262 2305 2288 2296 2358 2428 2393 2392 2384 2401 2433 2484 2580 2575 2566 2565 2566 2555 2543 2540 2546 2524 2415 2268 2199 2110 2039 1970 1928 1910 1876 1869 
1760 1731 1717 1697 1684 1624 1574 1547 1552 1550 1562 1533 1581 1587 1582 1558 1545 1529 1546 1496 1481 1491 1497 1510 1541 1579 1645 1682 1718 1745 1728 1748 1797 1821 1834 1843 1863 1926 1911 1902 1953 1992 1975 1937 1899 1887 1867 1839 1834 1842 1868 1967 2033 2110 2205 2180 2140 2101 2034 1994 1954 1885 1833 1823 1792 1750 1728 1698 1653 1647 1643 1643 1659 1657 1666 1706 1771 1815 1853 1867 1849 1829 1812 1871 1927 1969 2032 2058 2048 1996 1956 1989 2026 2175 2241 2296 2334 2333 2331 2359 2395 2408 2424 2420 2439 2464 2488 2594 2602 2589 2596 2607 2596 2586 2591 2594 2549 2432 2235 2170 2103 2010 1990 1964 1947 1950 1933 
1684 1662 1641 1659 1649 1610 1559 1513 1509 1519 1533 1508 1549 1545 1539 1516 1493 1483 1466 1444 1452 1475 1556 1601 1640 1628 1687 1724 1787 1796 1775 1787 1820 1896 1908 1900 1923 1942 1933 1926 1970 1985 1945 1928 1903 1885 1874 1849 1854 1863 1887 1975 2041 2116 2182 2170 2146 2101 2015 1976 1927 1850 1809 1781 1765 1718 1705 1698 1716 1680 1690 1693 1701 1697 1691 1776 1826 1842 1867 1891 1877 1855 1828 1863 1923 1986 2085 2119 2157 2097 2057 2027 2070 2186 2244 2294 2311 2312 2315 2334 2377 2397 2418 2410 2420 2436 2462 2552 2571 2539 2529 2548 2587 2628 2622 2592 2520 2416 2211 2157 2107 2028 2010 1995 2004 2047 2058 
1647 1626 1613 1599 1579 1560 1519 1469 1440 1492 1507 1495 1497 1501 1496 1474 1454 1445 1435 1446 1473 1508 1609 1646 1680 1725 1814 1841 1864 1884 1844 1805 1829 1923 1953 1951 1951 1960 1952 1946 1994 1978 1945 1925 1908 1895 1882 1883 1907 1919 1941 1991 2053 2115 2151 2147 2130 2091 1995 1953 1910 1832 1796 1771 1753 1723 1724 1735 1766 1788 1804 1795 1791 1774 1754 1797 1860 1903 1905 1884 1887 1878 1839 1861 1916 1978 2087 2116 2152 2156 2123 2090 2148 2224 2210 2225 2247 2271 2305 2327 2363 2386 2402 2378 2390 2408 2442 2526 2532 2513 2508 2506 2527 2550 2554 2538 2473 2388 2258 2209 2127 2056 2043 2039 2056 2156 2184 
1606 1589 1579 1563 1549 1536 1499 1453 1421 1428 1432 1440 1416 1426 1423 1437 1424 1420 1430 1482 1521 1568 1664 1698 1726 1774 1879 1914 1921 1905 1864 1838 1859 1909 1954 2006 1990 1972 1966 1976 2006 1983 1958 1937 1924 1913 1897 1910 1942 1937 1942 1979 2030 2073 2073 2069 2078 1999 1944 1902 1881 1835 1806 1777 1746 1752 1759 1786 1818 1829 1841 1844 1828 1820 1800 1807 1866 1944 1966 1918 1893 1878 1853 1858 1904 1961 2067 2094 2124 2152 2138 2116 2151 2187 2193 2221 2247 2266 2283 2297 2349 2370 2380 2306 2347 2366 2404 2482 2502 2491 2484 2479 2484 2488 2481 2475 2438 2330 2278 2237 2207 2181 2185 2197 2214 2328 2254 
1561 1549 1543 1533 1523 1510 1480 1433 1397 1396 1400 1405 1392 1402 1398 1419 1448 1490 1557 1605 1639 1675 1719 1764 1787 1857 1892 1914 1933 1921 1887 1869 1905 1933 1979 2031 2012 2021 2027 2031 2042 2025 1999 1969 1939 1935 1931 1958 1962 1939 1936 1959 1997 2039 2043 2041 2051 1971 1919 1884 1866 1846 1834 1826 1841 1858 1824 1843 1869 1867 1871 1879 1864 1847 1833 1828 1861 1934 1976 1955 1920 1890 1869 1858 1870 1907 2012 2035 2092 2128 2127 2122 2141 2166 2175 2199 2240 2262 2271 2281 2337 2360 2366 2285 2277 2298 2333 2448 2462 2462 2461 2457 2453 2451 2442 2437 2430 2360 2321 2296 2268 2278 2279 2286 2375 2357 2321 
1467 1478 1475 1464 1444 1431 1451 1411 1367 1365 1372 1376 1381 1388 1398 1454 1485 1529 1607 1634 1673 1711 1788 1826 1853 1878 1906 1905 1924 1949 1930 1923 1939 1969 2012 2075 2044 2047 2056 2070 2063 2045 2019 2009 2009 1990 1940 1934 1919 1898 1922 1940 1970 2010 2024 2028 2024 1948 1917 1901 1879 1862 1859 1860 1909 1916 1925 1926 1945 1938 1930 1932 1896 1880 1869 1864 1890 1937 2015 1992 1967 1940 1890 1870 1867 1932 1982 2012 2037 2083 2099 2106 2106 2130 2153 2169 2212 2239 2266 2302 2327 2350 2355 2260 2254 2281 2315 2420 2443 2451 2416 2407 2402 2398 2390 2379 2367 2361 2346 2354 2352 2381 2374 2364 2426 2404 2389 
1434 1444 1446 1438 1411 1399 1381 1338 1306 1312 1320 1351 1376 1399 1424 1501 1540 1573 1656 1681 1703 1739 1819 1852 1877 1907 1918 1896 1883 1956 1993 2019 2031 2066 2080 2104 2068 2066 2080 2117 2098 2072 2056 2022 1996 1969 1924 1900 1888 1868 1883 1899 1925 1956 1972 1989 1998 1955 1923 1911 1912 1913 1917 1923 1971 1960 1964 1978 1980 1971 1955 1960 1952 1942 1936 1944 1937 1988 2057 2020 2001 1976 1920 1897 1880 1900 1940 1982 2012 2065 2081 2097 2073 2097 2121 2110 2138 2164 2216 2309 2342 2341 2315 2237 2234 2260 2346 2408 2442 2448 2391 2378 2380 2372 2368 2356 2337 2323 2344 2369 2390 2394 2392 2404 2420 2412 2397 
1394 1410 1414 1408 1370 1353 1346 1306 1287 1291 1303 1388 1434 1464 1549 1581 1617 1659 1749 1745 1767 1811 1847 1874 1899 1931 1922 1881 1877 1931 1971 2019 2082 2117 2132 2132 2126 2126 2137 2120 2093 2085 2058 2008 1977 1948 1911 1880 1854 1839 1866 1886 1908 1936 1947 1955 1987 2015 2013 2012 2040 2013 2002 1982 2011 1992 2007 2024 2009 1996 1985 1988 1977 1956 1980 1972 1949 1987 2074 2074 2057 2032 1985 1968 1931 1881 1911 1942 1979 2038 2057 2081 2057 2071 2094 2094 2117 2151 2198 2296 2327 2291 2223 2171 2193 2230 2334 2410 2435 2437 2377 2361 2359 2345 2338 2326 2301 2302 2336 2359 2370 2370 2371 2377 2369 2365 2351 
1325 1330 1334 1373 1339 1320 1319 1276 1276 1296 1346 1408 1435 1484 1577 1615 1649 1690 1790 1842 1891 1918 1932 1953 1993 1975 1933 1871 1884 1918 1955 1993 2065 2092 2113 2114 2112 2110 2109 2074 2053 2025 2001 1951 1926 1906 1850 1855 1826 1814 1851 1868 1882 1909 1924 1921 1949 2009 2017 2027 2051 2042 2042 2107 2057 2063 2093 2115 2076 2024 2009 2018 2007 1977 1971 1982 1967 1992 2081 2110 2090 2036 2011 1990 1958 1885 1852 1864 1929 1974 2008 2059 2042 2032 2061 2074 2093 2119 2171 2265 2289 2269 2204 2141 2167 2209 2321 2377 2401 2389 2356 2323 2304 2301 2304 2299 2276 2275 2317 2345 2346 2343 2349 2357 2352 2347 2334 
1297 1297 1300 1287 1271 1248 1248 1284 1341 1339 1410 1448 1464 1502 1610 1663 1698 1733 1833 1890 1942 1981 1993 2015 2035 1951 1896 1849 1846 1873 1903 1964 2027 2061 2092 2080 2078 2089 2085 2035 2018 1997 1955 1929 1903 1880 1828 1790 1776 1797 1815 1827 1830 1882 1892 1894 1965 1988 1997 2008 2052 2059 2082 2136 2097 2098 2124 2150 2098 2072 2064 2026 2014 2005 2013 2023 1988 2024 2079 2130 2127 2068 2040 2010 1983 1919 1871 1834 1883 1932 1966 1989 1995 1982 1974 2009 2023 2045 2136 2225 2240 2229 2132 2119 2147 2194 2326 2361 2370 2364 2340 2315 2283 2278 2240 2213 2202 2241 2287 2303 2325 2324 2326 2332 2330 2331 2323 
1268 1256 1268 1244 1234 1231 1250 1329 1395 1448 1544 1560 1557 1575 1671 1693 1741 1832 1877 1927 1975 2040 2051 2056 2042 1937 1880 1833 1822 1844 1878 1896 1954 2003 2028 2008 2022 2040 2067 2023 1999 1977 1939 1913 1881 1848 1793 1760 1742 1773 1791 1804 1797 1843 1851 1857 1902 1917 1958 1987 2055 2073 2115 2135 2122 2128 2160 2148 2103 2081 2033 2013 2010 2023 2049 2059 2055 2083 2090 2119 2151 2130 2074 2039 2011 1949 1902 1846 1840 1879 1913 1940 1971 1972 1955 1967 1982 1995 2023 2103 2105 2098 2068 2067 2125 2180 2331 2356 2343 2322 2313 2291 2264 2246 2227 2204 2188 2223 2262 2272 2273 2268 2268 2270 2272 2278 2307 
1249 1225 1233 1211 1224 1251 1280 1375 1448 1481 1576 1602 1604 1619 1692 1756 1805 1881 1919 1959 1995 2025 2053 2037 1985 1936 1872 1820 1801 1816 1839 1892 1921 1967 1998 1980 1985 2009 2028 1999 1976 1962 1926 1891 1865 1825 1750 1731 1718 1740 1752 1762 1756 1810 1818 1839 1882 1908 1935 1964 2031 2049 2095 2168 2187 2199 2189 2116 2098 2082 2022 2013 2012 2037 2082 2097 2089 2143 2141 2152 2163 2141 2119 2096 2028 1992 1956 1914 1804 1829 1861 1888 1935 1942 1944 1926 1935 1944 1963 2021 2037 2029 2010 2026 2054 2110 2259 2304 2299 2255 2276 2262 2240 2222 2225 2211 2186 2212 2240 2246 2242 2236 2233 2229 2233 2244 2254 
1189 1180 1193 1256 1274 1309 1324 1425 1466 1496 1603 1638 1652 1664 1725 1768 1821 1899 1934 1962 1976 1990 1981 1952 1937 1914 1867 1809 1772 1785 1800 1859 1899 1933 1952 1960 1953 1966 2010 2010 1990 1971 1905 1877 1844 1759 1722 1692 1679 1664 1711 1716 1721 1768 1795 1820 1869 1893 1916 1950 2015 2028 2064 2171 2195 2204 2156 2091 2070 2053 2023 2027 2022 2047 2116 2128 2119 2143 2178 2189 2191 2158 2144 2128 2054 2013 1975 1936 1834 1782 1779 1798 1830 1854 1873 1898 1898 1900 1939 1950 1972 1973 1970 1994 2020 2069 2188 2245 2269 2234 2217 2200 2189 2178 2188 2206 2176 2190 2214 2220 2211 2202 2196 2193 2194 2205 2218 
1172 1204 1235 1294 1331 1349 1436 1494 1536 1580 1665 1695 1685 1725 1745 1782 1835 1922 1952 1948 1941 1955 1945 1912 1886 1878 1851 1798 1720 1733 1752 1817 1837 1846 1857 1936 1925 1926 1984 2000 2003 1990 1902 1866 1842 1777 1736 1702 1683 1645 1643 1642 1669 1695 1728 1764 1828 1870 1899 1984 1998 2020 2057 2151 2177 2194 2164 2097 2075 2060 2074 2083 2098 2126 2174 2161 2158 2167 2202 2213 2220 2176 2166 2155 2071 2028 1988 1954 1854 1799 1759 1743 1777 1811 1835 1851 1833 1828 1817 1832 1847 1916 1927 1961 1993 2085 2141 2206 2259 2224 2196 2181 2154 2137 2141 2170 2160 2142 2144 2160 2140 2124 2117 2151 2157 2161 2180 
1197 1251 1285 1337 1377 1394 1446 1507 1556 1602 1679 1712 1736 1796 1822 1840 1856 1946 1947 1922 1902 1910 1916 1890 1838 1834 1818 1734 1694 1708 1727 1794 1804 1804 1824 1874 1850 1858 1908 1933 1951 1992 1904 1863 1843 1801 1768 1738 1714 1662 1635 1625 1638 1665 1697 1733 1802 1832 1862 1948 1962 2011 2046 2124 2148 2175 2133 2106 2090 2083 2134 2153 2158 2192 2195 2181 2176 2173 2195 2219 2221 2184 2154 2128 2085 2037 1999 1967 1879 1830 1777 1724 1730 1755 1784 1832 1808 1795 1767 1773 1792 1809 1874 1910 1953 2056 2096 2181 2223 2224 2202 2176 2140 2107 2102 2115 2128 2114 2109 2130 2116 2090 2076 2069 2073 2078 2085 
1285 1314 1366 1391 1427 1439 1502 1520 1562 1596 1671 1723 1749 1815 1851 1882 1898 1963 1942 1903 1860 1849 1841 1833 1776 1791 1777 1707 1665 1680 1706 1761 1767 1768 1822 1841 1819 1806 1860 1886 1906 1947 1938 1911 1877 1834 1824 1782 1754 1701 1668 1630 1619 1644 1673 1701 1771 1806 1851 1929 1955 1988 2024 2087 2105 2137 2181 2176 2185 2130 2173 2184 2198 2228 2227 2212 2205 2196 2210 2230 2230 2191 2154 2121 2088 2076 2050 1974 1940 1894 1845 1758 1704 1701 1757 1769 1784 1764 1735 1736 1749 1779 1849 1885 1940 2050 2072 2103 2128 2161 2202 2223 2151 2106 2068 2068 2088 2082 2074 2104 2090 2071 2049 2035 2032 2039 2047 
1332 1368 1466 1503 1536 1561 1548 1564 1588 1599 1695 1732 1769 1838 1873 1902 1922 1973 1937 1890 1849 1830 1812 1796 1741 1718 1677 1651 1637 1628 1643 1730 1732 1731 1787 1805 1793 1770 1813 1835 1855 1925 1933 1924 1910 1866 1843 1821 1768 1748 1731 1696 1608 1634 1669 1705 1732 1782 1830 1912 1944 1966 1989 2044 2079 2107 2179 2186 2186 2205 2221 2235 2246 2279 2279 2273 2241 2224 2232 2253 2230 2195 2161 2127 2089 2085 2083 2019 1977 1933 1881 1777 1723 1672 1645 1645 1676 1695 1716 1722 1737 1793 1827 1865 1927 2036 2050 2075 2108 2130 2193 2238 2157 2112 2081 2064 2016 2011 2011 2021 2072 2047 2025 1996 1998 2003 2017 
1367 1416 1510 1548 1578 1605 1605 1595 1617 1697 1739 1782 1823 1894 1919 1939 1968 1980 1938 1882 1835 1812 1793 1741 1701 1683 1656 1614 1609 1593 1606 1653 1652 1676 1722 1735 1728 1707 1772 1791 1831 1907 1909 1915 1917 1889 1870 1847 1786 1761 1737 1712 1613 1616 1637 1694 1724 1747 1774 1869 1919 1944 1988 2020 2051 2078 2160 2166 2164 2217 2231 2245 2258 2293 2291 2284 2278 2304 2282 2254 2216 2194 2168 2134 2113 2105 2114 2082 2030 1976 1912 1794 1741 1688 1615 1608 1623 1646 1667 1674 1689 1743 1801 1865 1934 2032 2050 2052 2076 2123 2180 2225 2159 2119 2089 2047 2021 2003 1991 1985 2001 2016 1966 1948 1938 1926 1982 
1390 1442 1551 1587 1617 1644 1661 1645 1645 1706 1758 1807 1847 1912 1936 1958 1996 1983 1933 1891 1797 1791 1780 1730 1688 1647 1620 1582 1575 1567 1601 1615 1623 1656 1690 1699 1689 1676 1702 1743 1782 1840 1848 1832 1885 1876 1861 1848 1798 1773 1741 1716 1623 1602 1625 1671 1702 1726 1768 1845 1863 1890 1963 1987 2011 2031 2108 2125 2147 2213 2232 2246 2263 2298 2290 2272 2280 2301 2276 2253 2198 2178 2140 2087 2105 2105 2083 2084 2061 2013 1872 1810 1742 1683 1604 1584 1584 1600 1645 1639 1650 1732 1797 1862 1905 1940 1961 1982 2039 2086 2146 2209 2163 2128 2103 2059 2037 2015 1998 1966 1964 1980 1958 1925 1907 1895 1902 
1418 1470 1579 1629 1666 1703 1714 1702 1688 1717 1763 1820 1858 1919 1947 1975 2011 1986 1942 1906 1814 1791 1776 1713 1666 1623 1580 1545 1555 1554 1570 1574 1589 1625 1659 1664 1656 1651 1684 1718 1753 1787 1810 1791 1754 1772 1754 1737 1732 1708 1724 1673 1623 1589 1605 1655 1680 1714 1754 1817 1829 1869 1930 1960 1981 1997 2031 2071 2108 2187 2231 2261 2265 2291 2280 2252 2237 2252 2256 2249 2173 2148 2107 2071 2075 2078 2071 2054 2046 2008 1916 1826 1751 1687 1594 1574 1564 1586 1613 1619 1630 1723 1789 1840 1877 1896 1920 1947 2024 2076 2129 2147 2171 2188 2175 2122 2103 2038 2018 1968 1959 1949 1928 1905 1876 1863 1870 
1457 1469 1575 1630 1677 1757 1793 1828 1830 1773 1808 1847 1889 1921 1953 1977 2030 2033 1994 1950 1855 1827 1814 1750 1693 1640 1591 1519 1515 1512 1516 1511 1522 1550 1597 1629 1621 1629 1662 1682 1719 1739 1774 1761 1697 1711 1702 1673 1661 1651 1620 1580 1556 1539 1573 1613 1642 1692 1762 1780 1795 1833 1920 1942 1955 2006 2027 2055 2086 2174 2222 2259 2271 2245 2229 2229 2168 2165 2177 2225 2162 2125 2102 2076 2071 2067 2056 2021 2018 1995 1896 1821 1749 1686 1590 1551 1523 1519 1541 1560 1601 1715 1768 1808 1846 1869 1904 1930 2020 2067 2103 2113 2159 2212 2214 2153 2128 2095 2030 1999 1979 1959 1896 1876 1846 1828 1832 
1515 1522 1594 1635 1676 1760 1803 1842 1865 1800 1816 1849 1892 1915 1939 1976 2063 2076 2079 1970 1916 1888 1869 1790 1718 1654 1542 1513 1497 1495 1489 1488 1491 1544 1562 1561 1554 1583 1609 1646 1658 1692 1729 1728 1646 1656 1645 1615 1592 1587 1565 1527 1509 1531 1567 1598 1611 1628 1684 1715 1753 1783 1881 1910 1933 1990 2016 2050 2082 2161 2207 2240 2230 2204 2181 2175 2149 2124 2133 2175 2144 2129 2115 2071 2059 2053 2039 1990 1985 1977 1891 1831 1757 1692 1591 1548 1514 1481 1491 1526 1578 1684 1725 1755 1810 1840 1872 1918 2024 2066 2075 2085 2137 2199 2227 2181 2150 2116 2048 2013 1994 1977 1900 1856 1806 1739 1748 
1626 1633 1638 1640 1675 1758 1802 1840 1870 1835 1834 1845 1884 1907 1937 1981 2048 2039 2048 1987 1910 1875 1848 1776 1733 1667 1561 1529 1504 1480 1464 1463 1468 1508 1525 1526 1516 1566 1598 1617 1610 1616 1629 1649 1568 1544 1547 1553 1532 1522 1512 1477 1499 1556 1608 1614 1608 1614 1655 1694 1724 1758 1868 1861 1870 1944 1986 2024 2058 2145 2186 2192 2175 2159 2139 2130 2121 2093 2088 2156 2163 2140 2117 2067 2025 2008 1961 1950 1925 1913 1875 1847 1777 1654 1598 1541 1499 1465 1470 1506 1563 1667 1714 1740 1797 1824 1851 1904 1998 2024 2028 2050 2084 2139 2220 2219 2188 2143 2058 2027 1999 1974 1896 1837 1784 1719 1702 
1673 1681 1678 1687 1696 1748 1779 1808 1900 1884 1874 1874 1897 1919 1940 1966 2028 2004 2014 1975 1889 1839 1827 1762 1724 1690 1619 1595 1576 1542 1461 1433 1449 1476 1486 1482 1484 1550 1577 1586 1571 1568 1576 1602 1554 1497 1501 1451 1439 1422 1417 1465 1521 1590 1662 1647 1642 1640 1663 1699 1732 1814 1856 1854 1852 1924 1967 2008 2044 2108 2096 2079 2087 2080 2071 2054 2067 2056 2060 2139 2179 2165 2126 2047 2022 1978 1947 1917 1896 1882 1862 1849 1809 1674 1614 1561 1508 1447 1454 1486 1601 1645 1692 1727 1778 1804 1834 1928 1955 1971 1989 2040 2065 2110 2231 2248 2187 2122 2063 2041 1996 1963 1876 1804 1750 1705 1682 
1706 1760 1746 1735 1735 1752 1777 1804 1890 1931 1957 1964 1968 1983 1995 2038 2016 1989 1986 1950 1896 1829 1807 1762 1726 1702 1660 1635 1608 1576 1490 1452 1429 1401 1407 1414 1451 1492 1542 1549 1547 1522 1535 1556 1518 1467 1448 1414 1402 1390 1395 1483 1541 1607 1700 1686 1698 1707 1694 1708 1735 1806 1835 1845 1845 1907 1956 1995 2071 2093 2070 2043 2030 2036 2028 1987 1973 1982 2020 2095 2154 2185 2152 2031 2004 1964 1889 1867 1867 1861 1846 1839 1810 1683 1623 1571 1514 1442 1445 1473 1554 1589 1634 1677 1763 1789 1809 1870 1901 1920 1947 2022 2048 2082 2200 2219 2165 2114 2062 2035 1995 1931 1857 1792 1741 1692 1672 
1714 1803 1813 1795 1776 1764 1780 1806 1878 1921 1959 1991 2022 2022 2028 2012 1998 1980 1968 1932 1915 1888 1826 1817 1776 1738 1702 1679 1646 1566 1518 1479 1441 1379 1371 1395 1452 1468 1478 1480 1505 1460 1461 1461 1475 1442 1403 1383 1367 1371 1412 1507 1569 1629 1719 1712 1720 1727 1721 1739 1743 1789 1805 1826 1845 1905 1948 1984 2061 2069 2045 2014 1983 1988 1984 1940 1945 1975 2018 2088 2107 2126 2083 2026 1981 1942 1845 1806 1785 1833 1831 1817 1788 1687 1627 1584 1530 1445 1439 1464 1541 1573 1619 1659 1704 1706 1718 1774 1827 1875 1914 1997 2025 2058 2160 2175 2151 2130 2083 2044 1992 1939 1874 1816 1777 1745 1722 
1765 1833 1865 1894 1861 1829 1791 1813 1874 1907 1949 1992 2061 2060 2035 1988 1973 1969 1964 1929 1916 1899 1856 1871 1886 1862 1812 1772 1683 1589 1544 1505 1461 1376 1347 1363 1415 1429 1444 1462 1479 1445 1412 1388 1379 1357 1335 1337 1374 1418 1516 1540 1591 1648 1740 1736 1736 1745 1754 1777 1767 1777 1813 1857 1881 1917 1939 1947 1984 1994 1979 1951 1901 1942 1943 1917 1934 1972 2028 2089 2089 2098 2102 2039 1989 1944 1863 1826 1786 1788 1797 1782 1749 1717 1663 1592 1494 1450 1434 1451 1522 1553 1595 1661 1666 1684 1701 1757 1809 1865 1914 2012 2063 2101 2091 2083 2078 2139 2122 2072 2009 1945 1897 1844 1823 1811 1781 
1791 1857 1880 1907 1928 1904 1888 1897 1886 1911 1938 2032 2065 2053 2014 1966 1955 1945 1939 1927 1917 1909 1875 1866 1888 1897 1850 1798 1737 1650 1610 1574 1523 1416 1367 1334 1378 1390 1405 1436 1456 1430 1379 1350 1320 1309 1299 1369 1410 1445 1538 1588 1645 1704 1790 1785 1773 1787 1798 1814 1791 1793 1845 1896 1894 1883 1900 1906 1940 1952 1940 1884 1864 1853 1848 1882 1924 1976 2032 2067 2073 2081 2099 2056 2016 1966 1888 1849 1805 1764 1777 1759 1745 1712 1679 1622 1525 1463 1427 1425 1478 1532 1566 1634 1648 1671 1694 1762 1816 1874 1987 2031 2085 2121 2074 2050 2063 2110 2132 2119 2100 2058 1976 1892 1873 1878 1831 
1820 1867 1893 1917 1948 1952 1955 1968 1943 1957 1965 2038 2049 2017 1964 1931 1921 1911 1900 1923 1920 1910 1860 1852 1863 1893 1878 1826 1778 1690 1653 1609 1501 1443 1389 1340 1307 1319 1334 1365 1392 1402 1364 1313 1286 1275 1299 1390 1441 1495 1553 1611 1659 1719 1807 1809 1803 1862 1858 1855 1852 1880 1918 1914 1891 1855 1855 1865 1895 1901 1891 1845 1822 1810 1805 1868 1915 1977 2007 2012 2035 2046 2047 2069 2066 1952 1914 1862 1823 1741 1738 1734 1737 1707 1688 1642 1535 1474 1425 1409 1461 1496 1517 1578 1613 1652 1693 1794 1840 1890 1988 2027 2071 2105 2063 2037 2050 2095 2122 2133 2133 2110 2065 2029 2050 2049 2002 
1920 1925 1942 1933 1952 1965 1988 2008 1997 1988 2002 2023 2024 1996 1943 1903 1886 1889 1874 1864 1877 1877 1831 1815 1800 1869 1869 1850 1811 1737 1689 1628 1512 1475 1421 1368 1283 1281 1300 1348 1353 1334 1307 1245 1250 1296 1390 1418 1464 1529 1578 1606 1655 1708 1798 1829 1843 1891 1886 1871 1869 1908 1924 1900 1849 1824 1804 1794 1802 1817 1849 1797 1774 1770 1779 1855 1906 1975 1969 1982 2006 2021 2035 2055 2052 1949 1911 1868 1817 1733 1699 1676 1727 1709 1685 1654 1549 1494 1438 1406 1443 1478 1501 1559 1597 1635 1676 1778 1829 1878 1958 1981 1991 2009 2032 2024 2029 2090 2100 2099 2095 2102 2107 2098 2116 2130 2093 
1927 1946 1969 1990 2014 2009 2015 2033 2047 2030 2032 1989 1986 1971 1895 1870 1861 1862 1845 1831 1852 1861 1820 1794 1783 1793 1811 1812 1793 1743 1719 1690 1554 1508 1451 1403 1304 1267 1261 1302 1310 1306 1284 1236 1260 1306 1408 1461 1513 1564 1664 1686 1713 1762 1784 1827 1858 1898 1892 1892 1908 1920 1916 1893 1843 1807 1782 1769 1742 1770 1775 1711 1697 1713 1755 1851 1913 1965 1954 1963 1975 1987 2020 2028 2053 1935 1881 1855 1820 1741 1696 1667 1692 1686 1670 1637 1562 1523 1453 1394 1427 1463 1488 1537 1568 1605 1708 1756 1806 1851 1934 1942 1943 1962 1983 1993 2001 2062 2040 2021 2054 2066 2093 2099 2132 2162 2144 
1958 1980 2004 2023 2030 2013 1991 1994 1996 1996 2011 1964 1947 1927 1855 1828 1836 1829 1815 1803 1821 1814 1806 1777 1762 1757 1773 1773 1740 1719 1701 1685 1610 1556 1511 1474 1398 1354 1263 1257 1267 1269 1251 1244 1285 1326 1418 1467 1516 1570 1679 1706 1736 1794 1819 1830 1860 1890 1897 1894 1911 1912 1903 1884 1834 1798 1768 1717 1708 1721 1728 1683 1665 1694 1778 1843 1883 1891 1929 1929 1945 1957 1997 2004 2022 1955 1881 1841 1819 1761 1719 1670 1665 1660 1657 1639 1578 1548 1502 1396 1390 1427 1459 1512 1533 1586 1684 1731 1784 1836 1896 1895 1892 1929 1955 1976 1998 2037 2024 2005 2002 2007 2033 2047 2018 2038 2074 
2012 2036 2054 2066 2045 2026 1983 1953 1954 1962 1984 1966 1932 1911 1853 1808 1789 1779 1749 1736 1732 1742 1778 1769 1747 1729 1734 1728 1705 1675 1662 1657 1619 1579 1545 1477 1436 1390 1353 1257 1224 1211 1209 1247 1298 1346 1445 1476 1515 1570 1691 1724 1754 1815 1835 1843 1866 1869 1864 1868 1876 1871 1863 1846 1805 1769 1738 1699 1691 1689 1680 1650 1632 1668 1753 1810 1834 1864 1897 1916 1933 1943 1943 1959 1960 1965 1906 1880 1834 1782 1733 1684 1640 1642 1621 1608 1587 1563 1518 1403 1374 1400 1429 1498 1527 1564 1663 1705 1754 1811 1821 1853 1858 1893 1930 1982 2010 2015 2009 1990 1978 1978 2004 2018 1992 2007 2048 
2148 2142 2114 2054 2021 2001 1977 1920 1918 1933 1965 1969 1928 1902 1849 1804 1771 1750 1712 1697 1699 1707 1707 1714 1707 1669 1650 1644 1603 1626 1629 1622 1598 1580 1560 1499 1459 1418 1378 1288 1249 1215 1208 1241 1281 1318 1416 1459 1503 1612 1675 1735 1770 1824 1847 1854 1846 1831 1820 1826 1841 1847 1838 1831 1809 1778 1736 1667 1655 1650 1626 1563 1573 1639 1729 1771 1792 1833 1885 1901 1919 1933 1930 1931 1930 1973 1940 1921 1846 1787 1721 1661 1601 1597 1588 1574 1566 1543 1490 1399 1356 1367 1438 1476 1517 1557 1645 1684 1728 1815 1795 1794 1803 1883 1929 1958 1969 2003 1999 1979 1957 1955 1976 1988 1972 1992 2028 
2210 2185 2118 2037 2014 2007 1991 1902 1883 1889 1898 1925 1905 1891 1844 1806 1766 1697 1686 1666 1662 1670 1672 1681 1665 1624 1605 1599 1571 1565 1549 1542 1523 1520 1520 1513 1473 1431 1386 1301 1260 1220 1203 1232 1270 1322 1428 1480 1521 1619 1648 1677 1714 1784 1827 1824 1756 1787 1764 1779 1793 1808 1816 1804 1791 1767 1721 1654 1633 1623 1577 1549 1559 1596 1693 1731 1767 1780 1844 1880 1893 1920 1913 1903 1903 1951 1956 1931 1850 1789 1722 1667 1599 1570 1563 1492 1458 1436 1409 1337 1323 1338 1415 1455 1493 1530 1616 1658 1709 1775 1766 1762 1767 1873 1908 1934 1957 1978 1968 1957 1941 1931 1933 1941 1963 1982 2013 
2243 2188 2113 2081 2042 2039 2026 1908 1869 1869 1870 1894 1871 1856 1835 1812 1782 1701 1659 1640 1624 1629 1640 1652 1642 1605 1570 1567 1535 1527 1513 1502 1488 1481 1476 1495 1477 1438 1354 1310 1268 1229 1188 1225 1257 1303 1415 1472 1528 1591 1601 1626 1662 1763 1798 1782 1733 1691 1670 1676 1684 1695 1704 1786 1774 1751 1709 1627 1608 1597 1558 1535 1548 1593 1673 1698 1716 1786 1820 1842 1854 1865 1865 1854 1838 1854 1918 1914 1853 1798 1738 1685 1586 1560 1526 1469 1428 1398 1380 1318 1301 1302 1369 1414 1457 1503 1583 1612 1685 1736 1731 1738 1755 1846 1875 1897 1947 1981 1961 1942 1946 1936 1926 1931 1939 1955 1978 
2223 2237 2177 2095 2092 2099 2044 1912 1865 1847 1851 1855 1850 1850 1823 1810 1782 1725 1694 1658 1609 1550 1564 1577 1591 1592 1551 1524 1488 1484 1479 1470 1453 1448 1440 1454 1460 1432 1352 1308 1265 1229 1169 1203 1249 1357 1415 1463 1522 1542 1554 1587 1696 1753 1780 1740 1702 1660 1644 1627 1633 1644 1647 1686 1713 1719 1697 1621 1581 1554 1544 1523 1532 1586 1640 1663 1692 1756 1798 1822 1829 1831 1835 1824 1797 1803 1815 1833 1862 1823 1761 1637 1574 1530 1490 1452 1428 1416 1352 1320 1295 1291 1350 1391 1435 1532 1561 1583 1631 1680 1679 1693 1726 1807 1854 1877 1931 1965 1952 1928 1935 1924 1913 1922 1929 1951 1975 
2192 2222 2216 2207 2159 2084 1950 1895 1848 1816 1830 1821 1833 1805 1791 1789 1774 1727 1708 1687 1633 1534 1527 1541 1545 1529 1502 1454 1401 1404 1394 1393 1418 1416 1399 1418 1429 1418 1347 1302 1256 1220 1162 1196 1242 1345 1382 1409 1415 1476 1531 1581 1693 1747 1763 1728 1662 1636 1619 1573 1586 1593 1606 1656 1682 1689 1644 1606 1560 1527 1494 1468 1508 1553 1628 1663 1692 1756 1784 1800 1802 1799 1799 1793 1762 1764 1767 1788 1830 1822 1773 1664 1600 1554 1522 1475 1459 1442 1367 1335 1302 1282 1336 1384 1425 1509 1535 1562 1606 1654 1651 1664 1743 1786 1822 1860 1906 1917 1903 1884 1860 1906 1899 1911 1926 1945 1962 
2150 2187 2229 2182 2145 2082 1940 1882 1838 1803 1785 1765 1748 1744 1752 1743 1745 1711 1692 1673 1579 1533 1494 1507 1500 1481 1457 1383 1353 1360 1340 1347 1344 1349 1350 1359 1372 1378 1339 1299 1251 1214 1155 1182 1228 1307 1331 1351 1379 1479 1530 1583 1680 1737 1744 1705 1605 1567 1543 1510 1531 1546 1574 1604 1650 1661 1621 1582 1539 1489 1453 1442 1506 1600 1633 1657 1694 1754 1763 1764 1752 1747 1765 1756 1727 1729 1729 1744 1778 1803 1780 1685 1634 1598 1571 1522 1496 1464 1377 1329 1294 1262 1320 1363 1398 1477 1501 1543 1587 1626 1626 1649 1726 1767 1808 1845 1898 1878 1871 1857 1849 1842 1857 1880 1881 1923 2027 
2138 2165 2207 2155 2127 2088 1938 1875 1824 1786 1761 1751 1728 1715 1726 1730 1717 1674 1658 1613 1522 1482 1470 1466 1458 1439 1414 1348 1316 1311 1299 1307 1300 1310 1302 1318 1316 1339 1319 1277 1239 1170 1144 1167 1205 1258 1290 1341 1438 1482 1534 1585 1686 1712 1701 1665 1579 1534 1506 1464 1442 1470 1484 1520 1562 1607 1580 1554 1512 1465 1419 1432 1494 1578 1613 1645 1692 1741 1748 1750 1738 1736 1717 1698 1659 1659 1662 1664 1681 1758 1770 1705 1681 1649 1595 1563 1520 1468 1374 1321 1279 1247 1305 1342 1378 1441 1470 1516 1541 1572 1598 1646 1713 1749 1786 1837 1875 1840 1833 1815 1827 1808 1818 1869 1872 1921 2021 
2244 2274 2175 2121 2064 2011 1938 1883 1820 1747 1746 1743 1726 1704 1695 1694 1692 1656 1645 1604 1499 1458 1422 1387 1366 1353 1331 1279 1269 1275 1263 1269 1266 1258 1259 1274 1270 1298 1308 1265 1235 1164 1137 1157 1178 1291 1341 1396 1486 1524 1574 1602 1683 1673 1659 1602 1556 1508 1470 1421 1403 1426 1449 1487 1534 1575 1562 1518 1468 1431 1377 1420 1478 1576 1628 1668 1706 1731 1738 1741 1727 1721 1706 1692 1649 1639 1636 1618 1631 1666 1685 1712 1703 1685 1628 1576 1528 1479 1397 1340 1288 1256 1287 1317 1354 1419 1443 1491 1530 1553 1592 1615 1673 1714 1740 1762 1822 1815 1802 1762 1771 1780 1785 1830 1852 1912 1994 
2291 2322 2185 2143 2083 2026 1925 1873 1811 1732 1720 1711 1709 1701 1686 1661 1637 1636 1625 1588 1489 1448 1404 1344 1334 1325 1308 1292 1302 1316 1327 1331 1301 1249 1179 1233 1225 1269 1284 1258 1231 1162 1133 1135 1180 1282 1338 1378 1478 1519 1553 1610 1615 1587 1552 1533 1494 1492 1447 1387 1372 1392 1413 1448 1498 1530 1529 1494 1450 1378 1366 1426 1474 1573 1615 1662 1698 1701 1704 1718 1713 1700 1690 1679 1638 1623 1610 1583 1590 1605 1624 1681 1677 1675 1630 1581 1535 1499 1425 1376 1326 1242 1260 1288 1330 1396 1426 1462 1517 1549 1569 1593 1657 1689 1713 1749 1763 1783 1764 1710 1701 1693 1729 1762 1832 1907 1964 
2313 2339 2221 2156 2118 2071 1968 1914 1878 1747 1717 1688 1687 1671 1648 1621 1583 1572 1567 1570 1490 1454 1412 1337 1317 1307 1307 1319 1339 1369 1398 1373 1332 1292 1186 1142 1140 1195 1213 1218 1190 1157 1137 1126 1169 1261 1313 1357 1444 1495 1549 1599 1580 1545 1510 1492 1453 1430 1427 1335 1312 1329 1344 1374 1444 1478 1490 1459 1421 1350 1356 1416 1462 1552 1593 1642 1686 1690 1689 1687 1675 1658 1650 1635 1605 1595 1599 1561 1549 1547 1606 1623 1629 1634 1622 1585 1548 1511 1421 1381 1341 1256 1229 1249 1281 1346 1381 1416 1503 1510 1536 1569 1612 1644 1680 1725 1727 1727 1727 1682 1679 1684 1705 1738 1805 1865 1910 
2285 2270 2205 2162 2131 2046 2006 1979 1921 1779 1710 1669 1669 1643 1623 1595 1570 1558 1544 1524 1482 1453 1426 1351 1357 1320 1325 1340 1373 1411 1454 1411 1369 1331 1234 1168 1117 1143 1160 1174 1166 1125 1104 1124 1225 1286 1323 1350 1455 1511 1562 1574 1549 1508 1471 1443 1415 1381 1377 1333 1290 1294 1311 1324 1351 1390 1404 1373 1348 1311 1347 1400 1450 1532 1576 1624 1682 1683 1680 1679 1659 1644 1626 1618 1587 1571 1555 1529 1498 1479 1486 1494 1577 1568 1590 1584 1561 1492 1447 1407 1369 1285 1236 1222 1281 1316 1358 1386 1415 1442 1469 1486 1521 1557 1641 1687 1695 1693 1675 1657 1660 1680 1701 1734 1798 1834 1863 
2239 2218 2186 2150 2088 2044 2004 1959 1906 1755 1703 1660 1634 1615 1606 1581 1563 1542 1526 1489 1481 1465 1451 1383 1413 1416 1406 1444 1471 1509 1552 1526 1426 1372 1273 1203 1139 1096 1117 1132 1130 1099 1093 1135 1222 1281 1341 1391 1476 1524 1563 1543 1508 1474 1445 1388 1372 1342 1351 1328 1275 1257 1267 1277 1303 1374 1360 1335 1311 1312 1360 1414 1499 1539 1598 1635 1674 1676 1672 1667 1646 1627 1605 1599 1579 1554 1539 1518 1491 1462 1437 1438 1464 1472 1508 1525 1537 1518 1468 1431 1395 1309 1254 1217 1239 1288 1326 1345 1395 1414 1436 1475 1492 1526 1585 1632 1639 1626 1562 1554 1594 1665 1715 1758 1805 1814 1812 
2195 2168 2142 2110 2058 1987 1956 1919 1879 1759 1691 1623 1556 1546 1536 1532 1544 1523 1516 1481 1466 1468 1449 1430 1467 1476 1476 1501 1527 1554 1580 1544 1485 1381 1327 1266 1205 1089 1072 1090 1093 1072 1106 1151 1240 1288 1344 1400 1503 1541 1563 1528 1497 1456 1419 1333 1287 1253 1236 1217 1253 1218 1215 1243 1258 1322 1315 1287 1259 1317 1367 1418 1510 1557 1607 1626 1641 1644 1644 1623 1602 1572 1552 1578 1564 1541 1500 1493 1476 1451 1408 1401 1414 1431 1457 1480 1498 1489 1483 1461 1430 1367 1309 1254 1180 1252 1285 1316 1370 1396 1418 1464 1479 1506 1567 1592 1591 1581 1539 1536 1548 1584 1675 1700 1705 1725 1732 
2152 2104 2094 2065 2014 1930 1904 1864 1830 1741 1688 1619 1519 1500 1507 1499 1509 1491 1471 1456 1442 1433 1432 1467 1505 1524 1535 1555 1583 1603 1608 1572 1522 1404 1336 1268 1210 1113 1068 1030 1040 1084 1131 1168 1222 1286 1341 1453 1494 1520 1530 1506 1490 1457 1417 1326 1283 1234 1182 1165 1174 1158 1159 1205 1227 1229 1209 1229 1219 1333 1381 1432 1518 1551 1592 1620 1622 1622 1624 1612 1593 1565 1533 1513 1521 1500 1469 1449 1415 1435 1384 1382 1388 1394 1416 1438 1450 1451 1457 1455 1408 1367 1322 1268 1158 1187 1225 1265 1336 1357 1380 1442 1454 1490 1538 1564 1561 1544 1518 1523 1540 1568 1616 1642 1653 1659 1668 
2063 2012 1996 1987 1955 1845 1806 1809 1743 1711 1662 1597 1503 1477 1469 1467 1477 1469 1459 1440 1435 1440 1467 1549 1589 1619 1662 1671 1689 1658 1625 1592 1541 1422 1358 1280 1220 1112 1075 1036 1032 1068 1109 1144 1216 1258 1321 1411 1438 1441 1440 1477 1483 1459 1383 1341 1290 1243 1146 1119 1121 1089 1139 1174 1176 1179 1153 1160 1213 1328 1380 1425 1488 1527 1565 1605 1609 1607 1605 1602 1584 1555 1524 1480 1479 1470 1447 1433 1404 1381 1365 1334 1323 1317 1329 1387 1400 1419 1420 1423 1390 1348 1307 1250 1145 1175 1206 1274 1320 1342 1358 1400 1417 1454 1483 1485 1476 1468 1498 1508 1537 1556 1545 1570 1598 1601 1610 
2029 1972 1949 1941 1915 1818 1777 1727 1661 1638 1612 1574 1482 1465 1454 1443 1444 1444 1440 1440 1448 1473 1543 1584 1623 1657 1705 1708 1698 1668 1643 1602 1557 1445 1376 1291 1221 1114 1078 1041 1012 1058 1110 1147 1218 1247 1303 1380 1400 1401 1399 1411 1443 1457 1404 1364 1317 1255 1161 1111 1081 1069 1110 1131 1122 1114 1118 1172 1285 1328 1373 1421 1493 1532 1566 1580 1585 1584 1582 1589 1578 1555 1479 1465 1449 1440 1427 1412 1388 1361 1337 1319 1289 1293 1295 1315 1329 1343 1344 1347 1350 1310 1286 1224 1124 1148 1174 1257 1301 1330 1342 1384 1405 1437 1444 1455 1443 1430 1462 1488 1501 1468 1453 1447 1522 1540 1546 
2004 1943 1914 1896 1878 1803 1759 1722 1647 1626 1629 1645 1510 1473 1453 1464 1478 1489 1515 1475 1491 1527 1611 1639 1659 1689 1705 1698 1681 1647 1626 1598 1557 1454 1384 1318 1189 1139 1088 1042 1012 1060 1102 1172 1203 1228 1274 1352 1366 1368 1365 1391 1423 1450 1412 1370 1332 1277 1174 1122 1091 1014 1030 1030 1069 1074 1129 1185 1290 1336 1386 1438 1518 1545 1559 1567 1571 1571 1570 1553 1543 1524 1447 1423 1418 1399 1395 1385 1364 1317 1299 1300 1269 1272 1278 1293 1298 1303 1308 1309 1319 1293 1238 1178 1093 1102 1138 1220 1276 1307 1315 1357 1386 1406 1412 1412 1413 1399 1425 1447 1455 1431 1417 1414 1413 1422 1439 
1964 1900 1875 1856 1824 1794 1753 1708 1661 1636 1657 1642 1564 1507 1485 1500 1517 1544 1573 1609 1620 1636 1691 1703 1695 1681 1689 1667 1636 1615 1586 1568 1555 1457 1395 1330 1204 1150 1102 1055 995 1028 1069 1145 1173 1188 1223 1271 1334 1338 1332 1368 1404 1436 1411 1367 1326 1234 1192 1136 1101 1006 986 984 1012 1124 1173 1218 1301 1354 1393 1451 1509 1536 1548 1556 1558 1559 1557 1544 1516 1486 1436 1410 1394 1375 1324 1304 1299 1255 1233 1245 1255 1252 1265 1275 1278 1275 1280 1286 1285 1280 1243 1119 1078 1087 1129 1196 1218 1232 1271 1309 1329 1335 1379 1376 1370 1360 1389 1398 1401 1387 1372 1382 1376 1379 1385 
1965 1901 1872 1852 1790 1787 1785 1777 1745 1723 1686 1693 1631 1551 1542 1554 1556 1581 1641 1662 1677 1693 1706 1705 1677 1628 1618 1595 1557 1524 1508 1485 1529 1431 1379 1333 1220 1164 1113 1067 978 1011 1045 1119 1152 1167 1198 1248 1260 1265 1298 1317 1342 1377 1409 1361 1308 1218 1170 1129 1100 1010 966 966 1067 1116 1169 1202 1295 1324 1342 1399 1444 1480 1498 1529 1546 1545 1541 1530 1505 1468 1419 1389 1367 1346 1304 1279 1265 1227 1204 1208 1210 1221 1227 1223 1241 1243 1235 1260 1254 1244 1236 1117 1070 1079 1119 1154 1182 1217 1247 1282 1300 1302 1311 1318 1312 1312 1320 1314 1307 1341 1333 1342 1328 1330 1329 
