ncols 106
nrows 90
xllcorner -1620000
yllcorner 438000
cellsize 100
NODATA_value -9999
2148 2152 2104 2099 2129 2097 2081 2073 2056 2014 2040 2063 2050 2038 2066 2101 2082 2042 2010 1950 1931 1949 1945 1948 1952 1946 1923 1928 1929 1913 1858 1823 1780 1666 1635 1595 1563 1468 1432 1398 1323 1299 1276 1246 1224 1209 1203 1193 1191 1190 1184 1170 1157 1152 1139 1128 1119 1109 1092 1085 1080 1071 1067 1061 1061 1040 1030 1024 999 1001 1014 1016 1034 1019 998 947 936 928 924 917 906 895 881 873 866 844 794 774 775 772 773 772 773 774 774 773 773 772 772 773 773 772 771 772 778 795 
2041 2032 2013 2003 2025 2001 2032 2035 2007 1979 2001 2024 2010 2002 2030 2067 2039 2002 1969 1921 1893 1882 1863 1863 1861 1857 1834 1839 1896 1885 1857 1824 1783 1691 1646 1610 1585 1492 1457 1428 1348 1318 1293 1275 1244 1227 1207 1189 1190 1192 1188 1175 1161 1157 1149 1136 1127 1118 1091 1087 1081 1072 1068 1065 1065 1052 1034 1022 1000 1002 1013 1021 1032 1028 1006 954 941 933 929 923 912 901 883 874 869 860 812 793 776 772 773 773 774 774 774 774 773 773 772 772 773 772 771 772 776 782 
1993 1984 1962 1952 1965 1942 1928 1929 1924 1904 1921 1938 1961 1966 1981 2023 2007 1963 1929 1888 1861 1851 1827 1826 1821 1816 1789 1791 1804 1812 1815 1815 1796 1719 1656 1622 1561 1515 1480 1445 1375 1342 1316 1274 1255 1238 1218 1185 1184 1186 1187 1180 1168 1158 1164 1151 1137 1125 1097 1088 1082 1074 1068 1067 1070 1055 1041 1027 1001 1001 1014 1022 1025 1026 1015 973 956 946 933 929 916 904 884 876 874 877 841 813 781 773 774 775 775 774 773 774 774 774 774 774 772 771 770 776 776 779 
1950 1933 1915 1908 1903 1883 1877 1880 1876 1864 1871 1879 1860 1880 1883 1908 1909 1888 1858 1849 1826 1812 1791 1789 1780 1776 1749 1742 1755 1768 1775 1793 1787 1730 1689 1652 1584 1550 1518 1478 1414 1370 1347 1301 1275 1251 1231 1201 1189 1181 1180 1176 1169 1157 1162 1159 1149 1122 1110 1096 1087 1074 1069 1068 1062 1058 1043 1032 1005 999 1011 1021 1022 1025 1017 983 960 949 938 934 924 914 891 885 876 879 861 831 793 775 775 776 775 773 774 775 774 776 776 775 775 777 778 777 776 778 
1859 1839 1830 1862 1843 1836 1834 1837 1829 1827 1828 1815 1814 1821 1831 1836 1835 1825 1812 1768 1751 1730 1723 1720 1705 1729 1707 1703 1711 1724 1739 1758 1762 1738 1704 1670 1597 1568 1544 1498 1430 1403 1389 1360 1328 1294 1265 1212 1202 1193 1177 1175 1170 1161 1148 1150 1145 1128 1114 1098 1092 1076 1069 1070 1064 1058 1050 1042 1021 999 1005 1023 1018 1022 1017 996 963 951 941 935 928 919 893 884 876 873 872 857 822 776 775 775 773 774 774 776 775 776 776 776 777 777 777 776 776 778 
1831 1803 1794 1789 1782 1775 1769 1767 1774 1799 1793 1774 1776 1777 1784 1776 1773 1765 1747 1727 1715 1703 1698 1694 1679 1640 1637 1642 1645 1636 1654 1708 1738 1734 1708 1673 1600 1574 1558 1515 1444 1416 1408 1377 1349 1317 1289 1231 1218 1212 1198 1194 1189 1169 1145 1137 1134 1126 1117 1100 1095 1076 1069 1068 1060 1057 1056 1047 1027 1004 1001 1026 1021 1016 1010 1004 968 952 944 936 931 922 891 884 876 870 871 865 840 778 776 775 774 775 775 776 776 777 776 776 777 777 777 776 778 779 
1807 1785 1780 1777 1770 1763 1759 1757 1760 1759 1752 1734 1730 1725 1720 1710 1728 1719 1706 1700 1696 1686 1681 1670 1666 1644 1618 1615 1611 1594 1606 1614 1658 1679 1686 1665 1586 1555 1547 1482 1459 1436 1432 1394 1363 1337 1276 1247 1226 1218 1208 1206 1200 1172 1158 1144 1135 1123 1111 1104 1087 1078 1072 1069 1061 1057 1057 1052 1033 1013 997 1022 1024 1015 1008 999 976 955 948 939 932 926 890 882 877 869 868 865 850 782 776 775 776 776 776 776 776 777 777 777 777 777 778 777 779 780 
1793 1784 1783 1780 1777 1771 1766 1765 1761 1759 1755 1735 1731 1724 1723 1721 1708 1703 1702 1701 1698 1687 1678 1678 1687 1681 1653 1613 1586 1561 1562 1577 1612 1637 1651 1645 1583 1547 1517 1466 1457 1455 1463 1444 1378 1351 1292 1260 1234 1225 1213 1211 1206 1177 1165 1150 1138 1123 1112 1104 1090 1085 1083 1078 1067 1060 1057 1051 1042 1024 1000 1016 1023 1016 1003 997 978 958 948 939 930 919 900 885 879 862 860 859 821 792 777 774 774 775 775 776 776 776 777 777 777 778 777 778 779 778 
1813 1817 1820 1822 1827 1826 1832 1788 1780 1777 1771 1752 1751 1751 1751 1742 1727 1727 1731 1730 1722 1721 1720 1724 1744 1739 1714 1686 1654 1565 1542 1544 1573 1592 1608 1622 1580 1538 1503 1458 1447 1446 1454 1448 1431 1394 1310 1282 1256 1237 1220 1213 1209 1184 1171 1155 1142 1126 1114 1104 1092 1089 1085 1076 1067 1062 1056 1066 1059 1042 1018 998 1005 1014 1002 997 981 962 943 938 929 928 909 892 882 866 856 851 833 812 782 776 776 777 776 776 776 777 776 776 777 777 777 777 778 778 
1847 1851 1857 1859 1876 1872 1879 1879 1866 1856 1838 1824 1838 1789 1783 1777 1763 1761 1770 1767 1761 1767 1762 1764 1776 1769 1752 1727 1650 1609 1572 1544 1506 1515 1540 1592 1569 1530 1493 1450 1438 1438 1439 1439 1432 1409 1322 1287 1259 1227 1220 1217 1218 1207 1185 1169 1152 1133 1119 1107 1093 1092 1085 1074 1066 1063 1054 1068 1064 1051 1025 1010 997 1011 999 991 975 961 939 937 928 933 921 901 886 874 858 844 824 809 783 776 776 777 776 778 776 777 777 777 777 777 777 777 777 778 
1885 1890 1895 1902 1925 1931 1929 1925 1910 1892 1872 1872 1887 1888 1876 1872 1872 1866 1859 1807 1813 1824 1814 1817 1820 1815 1799 1766 1695 1649 1608 1569 1506 1495 1513 1531 1530 1515 1487 1432 1424 1426 1426 1426 1424 1415 1335 1289 1263 1231 1221 1217 1218 1214 1192 1175 1145 1141 1132 1120 1091 1094 1089 1066 1065 1062 1056 1069 1068 1058 1021 1016 1001 1003 998 991 984 960 941 935 930 929 928 916 901 877 860 852 827 820 796 777 775 776 776 776 776 776 777 777 778 778 780 779 779 780 
1962 1967 1975 2003 1964 1959 1959 1970 1951 1913 1891 1912 1933 1944 1930 1928 1930 1924 1906 1903 1906 1945 1949 1959 1932 1937 1846 1815 1738 1687 1641 1598 1522 1494 1489 1508 1513 1508 1480 1423 1409 1398 1400 1403 1399 1394 1345 1306 1272 1240 1227 1220 1217 1216 1198 1180 1147 1144 1138 1124 1093 1092 1088 1072 1064 1061 1056 1057 1070 1066 1027 1018 1005 993 997 992 988 960 947 944 935 935 932 921 891 882 872 863 840 824 809 777 775 775 775 776 776 776 777 778 778 778 779 779 778 781 
2003 2003 2003 2033 2040 2045 2043 1979 1964 1929 1907 1947 1976 1994 1990 1984 1983 1974 1964 1964 1961 2022 2040 2054 2027 2021 1965 1896 1803 1754 1700 1605 1539 1508 1478 1483 1490 1491 1469 1417 1400 1387 1383 1386 1384 1377 1346 1315 1290 1253 1241 1225 1218 1216 1204 1184 1150 1144 1141 1127 1098 1091 1087 1077 1069 1058 1056 1049 1064 1064 1044 1026 1013 998 996 997 990 966 952 946 938 933 934 924 893 886 878 874 851 827 811 777 776 775 775 777 777 777 776 778 779 779 778 776 776 781 
2042 2030 2019 2036 2060 2088 2084 1983 1953 1937 1956 2000 2042 2085 2134 2103 2117 2033 2036 2031 2016 2134 2156 2130 2090 2056 1993 1936 1819 1767 1737 1652 1609 1564 1518 1465 1448 1434 1411 1410 1391 1376 1367 1372 1370 1358 1348 1320 1294 1259 1247 1228 1216 1217 1214 1194 1161 1150 1146 1127 1119 1094 1084 1079 1073 1066 1058 1044 1056 1062 1053 1032 1012 998 990 994 1006 973 958 948 942 932 929 922 894 889 882 882 869 838 815 780 776 777 776 776 777 778 779 779 778 778 777 778 779 780 
2147 2059 2030 2033 2062 2105 2099 1986 1965 1960 1964 2015 2061 2105 2193 2175 2195 2156 2171 2170 2143 2241 2319 2217 2122 2059 1998 1938 1861 1843 1796 1698 1657 1604 1564 1489 1474 1454 1423 1396 1375 1357 1343 1345 1348 1352 1346 1326 1296 1264 1249 1232 1216 1214 1215 1198 1166 1152 1148 1136 1125 1110 1090 1084 1079 1070 1052 1044 1051 1059 1061 1039 1014 989 979 984 1006 974 958 949 935 932 927 919 893 887 895 910 900 855 826 786 777 776 776 776 777 778 780 779 779 779 778 780 779 779 
2208 2158 2087 2056 2065 2109 2072 2000 1987 1983 1988 2027 2074 2162 2218 2236 2249 2242 2226 2240 2206 2279 2347 2300 2163 2107 2071 2021 1920 1870 1822 1737 1692 1638 1598 1519 1497 1475 1431 1398 1369 1353 1332 1327 1329 1322 1324 1322 1310 1270 1253 1235 1217 1212 1213 1200 1170 1157 1150 1141 1129 1115 1095 1084 1081 1072 1053 1044 1042 1047 1061 1052 1035 992 981 973 993 979 961 950 939 929 925 918 891 888 897 914 908 884 855 812 785 778 776 776 776 778 779 779 779 777 775 776 778 779 
2250 2220 2137 2088 2099 2125 2124 2082 2068 2057 2043 2056 2101 2169 2218 2270 2307 2331 2297 2310 2275 2330 2358 2304 2181 2118 2060 1961 1910 1858 1815 1755 1714 1668 1584 1553 1509 1486 1436 1409 1385 1351 1331 1319 1309 1305 1310 1310 1292 1273 1256 1246 1220 1212 1208 1203 1184 1162 1151 1145 1133 1117 1100 1079 1085 1078 1058 1045 1044 1040 1052 1056 1046 996 985 977 976 992 972 956 942 929 922 912 890 890 901 912 906 889 863 826 798 778 776 777 777 778 776 776 776 776 775 776 779 778 
2263 2277 2195 2128 2142 2166 2190 2142 2114 2099 2086 2103 2135 2190 2237 2280 2325 2428 2442 2413 2346 2363 2347 2298 2192 2138 2087 1976 1919 1867 1821 1749 1715 1685 1615 1580 1547 1514 1443 1413 1391 1360 1342 1323 1306 1293 1295 1294 1292 1275 1260 1249 1225 1214 1205 1198 1186 1165 1151 1146 1140 1129 1095 1073 1084 1081 1061 1047 1043 1039 1045 1057 1048 999 985 976 998 994 974 958 946 929 909 892 889 889 901 907 902 884 867 836 810 785 776 776 776 777 777 776 775 775 774 776 775 777 
2245 2294 2240 2255 2290 2229 2259 2190 2166 2147 2157 2181 2190 2228 2262 2308 2352 2446 2410 2357 2305 2269 2291 2255 2164 2120 2086 1996 1940 1883 1836 1759 1728 1699 1632 1595 1565 1530 1458 1423 1398 1369 1359 1344 1321 1281 1276 1270 1286 1278 1264 1249 1226 1216 1205 1196 1186 1170 1154 1146 1148 1136 1101 1076 1074 1076 1054 1047 1045 1040 1038 1051 1048 1001 986 977 991 993 977 960 948 928 903 892 886 891 892 899 890 881 870 858 838 798 776 776 776 777 777 776 775 775 775 775 777 777 
2238 2280 2297 2326 2371 2381 2454 2368 2300 2275 2318 2253 2250 2271 2293 2337 2427 2451 2394 2328 2258 2223 2218 2173 2135 2095 2053 1957 1921 1891 1812 1761 1735 1698 1641 1605 1575 1542 1471 1436 1413 1379 1366 1350 1329 1284 1272 1267 1274 1273 1265 1250 1227 1219 1209 1194 1187 1175 1160 1143 1152 1144 1108 1082 1065 1070 1049 1046 1044 1041 1038 1039 1041 1011 994 981 972 991 979 961 948 926 909 913 892 879 880 893 888 881 875 870 855 830 778 777 776 777 775 775 775 772 774 775 776 776 
2244 2271 2344 2396 2447 2466 2522 2464 2418 2362 2369 2398 2401 2389 2388 2361 2356 2418 2393 2320 2219 2178 2141 2113 2093 2059 2014 1937 1908 1886 1825 1796 1772 1748 1681 1645 1616 1548 1509 1457 1434 1389 1374 1356 1312 1290 1274 1263 1260 1263 1263 1240 1229 1221 1210 1190 1189 1182 1153 1142 1148 1148 1111 1087 1064 1063 1050 1048 1044 1040 1038 1037 1041 1016 997 987 961 983 977 963 948 930 915 923 910 891 875 888 886 878 880 880 867 842 784 777 776 776 774 773 774 772 774 775 774 776 
2323 2331 2373 2438 2496 2517 2568 2548 2514 2451 2448 2462 2452 2395 2354 2319 2310 2312 2343 2345 2222 2156 2109 2040 2042 2014 1991 1928 1912 1897 1891 1857 1809 1764 1694 1660 1626 1569 1539 1494 1456 1411 1391 1373 1337 1309 1280 1263 1251 1256 1261 1243 1230 1223 1215 1189 1186 1181 1157 1142 1145 1150 1111 1089 1069 1054 1051 1048 1047 1040 1040 1039 1033 1017 996 986 960 973 974 951 947 933 921 919 931 906 875 863 868 872 880 882 878 857 795 778 777 775 774 773 774 773 775 775 774 775 
2325 2325 2380 2418 2454 2485 2539 2543 2564 2513 2475 2438 2379 2344 2318 2273 2261 2258 2304 2318 2267 2212 2157 2065 2028 2006 1995 2000 1991 2005 1924 1861 1817 1782 1710 1674 1636 1574 1549 1508 1474 1420 1399 1381 1342 1312 1283 1269 1244 1238 1245 1244 1231 1225 1220 1190 1182 1179 1160 1142 1139 1144 1111 1090 1073 1055 1052 1050 1047 1044 1048 1050 1029 1013 996 985 961 965 970 948 945 934 925 915 929 909 882 875 856 867 866 869 872 860 835 797 777 776 775 775 773 774 775 776 775 775 
2298 2298 2341 2372 2397 2453 2467 2467 2454 2426 2391 2344 2295 2269 2221 2237 2205 2226 2263 2301 2273 2257 2223 2138 2086 2069 2079 2065 2054 2049 1976 1944 1899 1801 1750 1711 1659 1573 1550 1520 1459 1431 1406 1386 1347 1318 1291 1263 1250 1237 1236 1241 1230 1215 1197 1175 1170 1167 1159 1140 1136 1136 1110 1091 1074 1058 1054 1049 1046 1042 1050 1054 1026 1010 997 983 965 944 942 938 945 938 928 912 923 914 894 891 857 843 859 863 866 865 850 825 790 777 778 778 775 776 776 776 775 775 
2272 2272 2295 2318 2332 2397 2398 2418 2400 2374 2344 2309 2244 2231 2190 2152 2110 2137 2185 2189 2163 2206 2205 2187 2177 2162 2130 2125 2119 2092 2008 1972 1919 1818 1762 1712 1668 1583 1552 1524 1473 1446 1419 1391 1352 1327 1302 1267 1256 1242 1228 1232 1219 1200 1178 1164 1158 1153 1140 1131 1120 1105 1096 1092 1080 1061 1056 1050 1041 1041 1050 1054 1030 1008 995 977 970 943 943 934 938 941 933 912 914 916 899 902 874 855 832 853 862 867 863 845 815 777 777 777 778 778 777 777 776 775 
2200 2201 2208 2218 2241 2333 2346 2362 2341 2325 2295 2284 2193 2178 2155 2122 2067 2101 2160 2134 2102 2082 2099 2083 2102 2096 2063 2111 2113 2088 2011 1979 1931 1818 1764 1714 1674 1583 1551 1520 1473 1448 1425 1408 1365 1343 1322 1280 1264 1247 1233 1216 1217 1230 1204 1172 1162 1151 1132 1124 1117 1113 1109 1102 1086 1061 1052 1045 1041 1038 1046 1052 1035 1017 1000 979 967 955 953 944 931 936 921 914 916 914 903 909 899 859 842 825 816 861 864 856 794 781 777 775 777 778 778 778 778 777 
2158 2161 2164 2170 2197 2240 2257 2261 2208 2208 2192 2204 2169 2123 2109 2048 2021 2047 2092 2078 2037 2027 2028 2022 2050 2047 2024 2018 2032 2010 1987 1966 1926 1813 1753 1708 1670 1597 1563 1531 1486 1460 1438 1420 1375 1351 1330 1284 1270 1253 1241 1236 1235 1233 1223 1206 1195 1180 1163 1146 1134 1118 1114 1105 1094 1067 1060 1048 1038 1036 1037 1048 1042 1019 1001 991 974 954 958 962 931 930 918 915 923 916 909 909 904 869 862 857 841 809 816 821 804 785 782 779 777 777 777 777 778 778 
2120 2121 2126 2134 2162 2195 2208 2212 2160 2152 2135 2164 2124 2054 2019 1979 1937 1942 2026 2030 1983 1967 1969 1963 1993 1993 1988 1980 1991 1980 1963 1952 1924 1827 1783 1740 1666 1624 1584 1554 1496 1468 1446 1405 1386 1358 1338 1295 1277 1261 1239 1236 1234 1230 1218 1214 1216 1201 1191 1169 1149 1128 1115 1105 1096 1075 1065 1056 1034 1033 1036 1045 1040 1018 999 994 975 956 957 979 954 930 924 928 928 921 916 910 915 891 876 870 863 837 809 797 793 785 782 781 778 777 777 777 777 778 
2040 2047 2045 2102 2122 2155 2160 2160 2122 2095 2081 2121 2078 2023 1969 1941 1899 1891 1917 1911 1887 1869 1849 1848 1933 1928 1935 1933 1944 1946 1938 1937 1919 1834 1793 1754 1677 1639 1596 1561 1506 1477 1454 1422 1403 1378 1345 1305 1285 1268 1242 1237 1232 1227 1220 1223 1218 1207 1197 1178 1156 1134 1124 1113 1094 1084 1074 1069 1035 1032 1043 1047 1036 1018 1000 997 977 958 966 976 954 933 928 928 932 923 920 914 915 916 887 878 872 851 835 824 815 793 783 780 779 778 778 778 777 778 
2012 2005 2014 2031 2053 2064 2073 2061 2033 2069 2034 2039 2012 1964 1921 1898 1860 1837 1860 1843 1833 1814 1791 1798 1816 1816 1840 1842 1848 1879 1896 1926 1913 1845 1803 1761 1685 1652 1609 1572 1514 1488 1465 1428 1412 1386 1359 1319 1297 1281 1257 1243 1230 1227 1230 1228 1221 1213 1201 1183 1161 1140 1131 1121 1097 1088 1077 1074 1050 1034 1038 1040 1033 1021 1002 998 980 960 964 970 952 934 931 930 932 927 921 916 914 926 919 903 877 867 862 856 833 798 782 781 779 779 778 778 777 778 
1979 1969 1984 1993 2006 2019 2017 2006 1980 1998 1956 1909 1872 1833 1822 1846 1808 1785 1779 1771 1767 1760 1748 1749 1754 1776 1798 1800 1808 1837 1851 1866 1854 1828 1798 1765 1706 1661 1621 1557 1527 1496 1472 1435 1421 1394 1345 1325 1307 1288 1261 1246 1235 1230 1235 1236 1232 1221 1212 1188 1168 1145 1138 1129 1101 1093 1082 1075 1057 1038 1027 1040 1028 1019 1003 992 983 966 958 951 941 939 938 934 931 929 922 915 912 925 934 919 881 872 866 859 835 801 783 784 783 779 779 778 777 777 
1930 1930 1947 1951 1953 1969 1962 1940 1925 1946 1916 1847 1814 1784 1764 1734 1713 1699 1674 1667 1659 1659 1698 1699 1704 1729 1740 1751 1756 1780 1780 1817 1830 1811 1789 1762 1717 1682 1647 1574 1545 1514 1483 1448 1426 1400 1352 1332 1314 1291 1265 1256 1244 1230 1237 1239 1234 1226 1213 1195 1162 1150 1151 1144 1110 1097 1086 1069 1061 1046 1029 1041 1030 1022 1009 990 984 968 958 948 940 941 947 949 941 938 930 920 913 923 936 928 886 878 871 862 838 805 784 784 783 781 779 778 778 777 
1845 1848 1856 1856 1842 1847 1908 1877 1858 1879 1866 1786 1764 1740 1718 1697 1678 1669 1642 1630 1621 1624 1623 1617 1616 1625 1638 1648 1702 1719 1720 1749 1784 1789 1771 1748 1722 1692 1655 1584 1554 1520 1489 1454 1434 1413 1368 1345 1327 1304 1269 1261 1252 1238 1239 1239 1235 1228 1216 1200 1167 1153 1152 1148 1113 1098 1094 1077 1070 1068 1059 1017 1033 1023 991 986 985 973 958 948 940 949 949 953 947 940 932 924 918 918 924 936 901 889 876 858 845 819 793 786 784 782 780 779 778 778 
1806 1818 1824 1819 1797 1794 1786 1766 1762 1756 1739 1707 1733 1704 1672 1664 1655 1649 1625 1616 1609 1598 1594 1587 1585 1586 1591 1601 1612 1610 1616 1627 1658 1672 1729 1718 1710 1692 1662 1588 1559 1524 1496 1460 1440 1423 1379 1354 1335 1310 1279 1269 1260 1250 1242 1239 1237 1230 1219 1204 1172 1158 1151 1152 1119 1101 1098 1081 1074 1071 1063 1020 1026 1025 1003 986 981 977 956 945 940 950 953 954 949 940 932 927 924 919 921 934 911 901 891 878 860 838 808 791 785 784 780 778 778 777 
1775 1783 1790 1782 1760 1753 1740 1724 1724 1716 1699 1676 1674 1665 1657 1661 1663 1662 1666 1632 1625 1613 1601 1596 1592 1574 1565 1558 1572 1566 1570 1576 1596 1603 1604 1630 1637 1646 1634 1584 1565 1529 1482 1465 1449 1432 1384 1362 1344 1292 1282 1274 1266 1254 1243 1240 1237 1230 1223 1209 1178 1165 1155 1154 1126 1106 1103 1090 1079 1074 1064 1026 1013 1029 1007 992 981 977 949 948 946 949 959 952 950 936 927 927 928 921 920 929 919 904 892 878 846 818 798 792 787 784 781 779 778 778 
1743 1734 1731 1751 1732 1723 1709 1700 1697 1686 1674 1666 1670 1671 1689 1696 1697 1697 1701 1697 1694 1668 1658 1658 1654 1595 1584 1570 1545 1542 1539 1541 1543 1547 1551 1573 1576 1597 1593 1570 1566 1536 1488 1476 1464 1449 1405 1371 1351 1301 1286 1279 1271 1257 1245 1239 1236 1231 1223 1211 1181 1166 1156 1154 1138 1117 1109 1116 1097 1077 1059 1043 1008 1019 1013 1000 983 957 948 959 962 947 958 953 946 929 926 925 921 915 895 914 904 882 856 841 815 800 797 792 789 785 781 779 778 778 
1742 1727 1719 1713 1711 1709 1711 1709 1705 1705 1684 1685 1693 1702 1729 1733 1736 1736 1738 1745 1735 1707 1698 1695 1688 1662 1647 1633 1591 1574 1561 1548 1509 1510 1515 1523 1524 1537 1536 1540 1551 1531 1485 1479 1466 1455 1412 1389 1367 1317 1295 1287 1281 1267 1249 1239 1235 1230 1222 1213 1185 1169 1155 1149 1137 1118 1113 1121 1106 1084 1063 1063 1044 1018 987 983 989 959 954 972 974 944 954 950 949 928 922 922 918 892 850 850 833 842 852 841 846 851 795 792 790 785 780 779 779 777 
1760 1743 1733 1733 1735 1737 1738 1740 1738 1741 1749 1759 1772 1782 1806 1812 1771 1773 1775 1786 1793 1758 1747 1738 1715 1701 1686 1666 1621 1606 1598 1564 1546 1525 1509 1480 1468 1473 1505 1511 1525 1520 1476 1472 1464 1442 1419 1395 1371 1326 1302 1292 1286 1272 1258 1245 1235 1229 1223 1214 1187 1171 1159 1143 1134 1119 1112 1120 1114 1092 1064 1064 1056 1032 1005 994 985 973 971 984 987 949 947 945 928 921 918 912 907 864 867 901 893 896 897 883 883 859 793 790 788 783 780 778 778 777 
1777 1761 1756 1761 1760 1770 1772 1774 1776 1785 1795 1800 1815 1824 1831 1848 1855 1861 1869 1873 1872 1890 1804 1782 1778 1753 1734 1700 1668 1652 1637 1609 1583 1559 1537 1502 1485 1466 1442 1449 1474 1474 1443 1441 1454 1443 1421 1397 1375 1329 1307 1296 1284 1276 1262 1249 1234 1229 1222 1203 1188 1175 1165 1140 1128 1116 1108 1116 1116 1098 1064 1069 1061 1043 1011 1002 994 979 974 986 991 956 941 934 934 924 912 913 899 893 911 923 921 911 909 900 894 860 789 788 788 784 779 779 777 777 
1840 1830 1827 1822 1826 1839 1842 1813 1820 1824 1836 1844 1861 1872 1873 1891 1901 1902 1919 1925 1919 1960 1931 1898 1898 1859 1816 1785 1777 1700 1684 1660 1630 1601 1571 1527 1512 1487 1449 1431 1440 1450 1429 1420 1419 1422 1414 1402 1382 1344 1319 1302 1288 1279 1267 1252 1232 1229 1220 1204 1191 1177 1167 1139 1125 1112 1100 1105 1087 1067 1070 1067 1061 1023 1012 1004 996 978 979 989 978 958 939 941 931 920 924 927 927 925 926 924 927 918 903 900 891 856 789 787 788 786 780 778 777 777 
1902 1881 1873 1853 1859 1874 1890 1901 1901 1901 1923 1941 1947 1917 1922 1941 1945 1946 1972 1977 1981 2014 1999 1972 1949 1894 1855 1852 1826 1782 1796 1749 1709 1680 1670 1568 1544 1508 1456 1437 1417 1422 1415 1410 1407 1405 1401 1397 1381 1348 1324 1311 1293 1283 1275 1260 1237 1228 1221 1205 1191 1178 1168 1143 1126 1107 1094 1093 1073 1066 1066 1066 1052 1020 1017 1006 997 974 968 974 962 946 948 944 924 930 932 930 927 927 925 922 921 917 897 884 859 827 784 785 785 783 779 777 777 777 
1991 1929 1904 1879 1887 1905 1932 1931 1935 1944 1965 1983 1996 2026 2043 2055 2067 2046 2075 2094 2013 2047 2062 2043 1991 1929 1915 1905 1876 1847 1847 1784 1749 1738 1672 1631 1588 1546 1480 1461 1441 1401 1392 1388 1389 1389 1386 1381 1363 1347 1327 1311 1295 1286 1276 1251 1242 1233 1226 1208 1189 1174 1164 1161 1135 1112 1084 1079 1067 1058 1055 1056 1051 1010 1012 1003 997 974 970 964 949 946 935 938 943 940 935 930 921 927 924 920 917 914 896 882 857 832 783 780 782 778 778 777 777 777 
2111 2056 1993 1934 1908 1930 1967 1969 1987 2003 2024 2044 2045 2090 2122 2133 2133 2100 2127 2147 2118 2127 2156 2167 2089 2069 1976 1961 1929 1912 1894 1817 1798 1774 1684 1638 1588 1550 1523 1491 1465 1418 1398 1379 1362 1357 1362 1362 1358 1345 1327 1313 1295 1285 1276 1254 1245 1237 1227 1204 1190 1177 1157 1155 1125 1098 1089 1085 1077 1064 1041 1034 1027 1003 998 997 985 980 973 966 951 951 946 940 942 944 941 933 920 924 923 916 915 910 900 893 865 838 787 780 778 779 777 777 777 778 
2168 2096 1992 1950 1932 1951 2030 2053 2068 2136 2088 2098 2113 2155 2179 2202 2189 2165 2180 2214 2181 2173 2195 2215 2147 2124 2098 2023 1989 1951 1910 1842 1816 1778 1678 1633 1591 1578 1553 1526 1494 1437 1411 1393 1370 1341 1342 1348 1346 1342 1330 1316 1299 1288 1276 1256 1245 1238 1228 1202 1183 1168 1142 1126 1097 1078 1064 1073 1075 1066 1054 1038 1026 1004 998 993 986 987 980 968 950 952 952 947 943 956 950 934 923 924 917 914 913 909 903 905 888 831 795 782 778 777 777 777 778 778 
2188 2130 2021 1972 1948 1956 2042 2070 2102 2187 2228 2230 2226 2306 2282 2322 2344 2242 2239 2289 2261 2238 2239 2208 2163 2119 2076 2009 1980 1943 1856 1819 1774 1737 1680 1665 1660 1626 1590 1550 1522 1459 1428 1408 1362 1343 1329 1339 1342 1340 1330 1316 1299 1287 1277 1256 1245 1237 1228 1197 1179 1160 1120 1101 1087 1092 1073 1061 1055 1049 1048 1030 1021 1005 997 994 992 999 997 976 960 960 967 958 946 962 957 934 921 921 915 912 909 910 900 901 896 838 804 780 777 777 777 779 778 777 
2230 2166 2038 1994 1966 1962 2055 2080 2108 2205 2259 2284 2283 2377 2348 2373 2404 2370 2375 2393 2357 2326 2267 2176 2133 2080 2030 1995 1975 1929 1840 1802 1774 1752 1716 1712 1702 1639 1613 1600 1579 1522 1494 1450 1374 1343 1324 1326 1336 1337 1328 1305 1297 1287 1277 1255 1246 1236 1215 1199 1174 1141 1103 1115 1133 1123 1119 1078 1057 1036 1031 1023 1020 1006 999 997 991 1002 1006 985 972 974 970 958 948 960 958 935 926 918 912 911 906 908 898 896 897 844 809 781 777 778 778 778 778 776 
2228 2164 2066 2031 1995 1983 2058 2096 2111 2196 2247 2294 2333 2419 2418 2437 2446 2419 2393 2370 2316 2293 2251 2137 2071 1995 1974 1928 1910 1889 1839 1814 1802 1784 1760 1760 1731 1676 1646 1624 1600 1551 1528 1478 1383 1347 1326 1308 1322 1331 1324 1303 1296 1285 1272 1256 1244 1227 1192 1175 1160 1124 1129 1145 1150 1134 1131 1126 1109 1067 1055 1043 1022 1014 1000 997 991 1003 1009 982 976 981 971 958 948 948 941 930 926 915 906 904 902 902 895 884 897 855 816 786 778 778 778 778 778 777 
2234 2171 2083 2040 2009 2016 2054 2089 2131 2176 2201 2241 2327 2370 2434 2459 2429 2407 2373 2312 2277 2251 2222 2099 2053 2005 1947 1930 1917 1902 1901 1901 1892 1872 1839 1806 1757 1708 1673 1641 1617 1559 1547 1505 1397 1356 1329 1311 1310 1326 1319 1299 1293 1280 1266 1231 1211 1189 1160 1143 1131 1132 1161 1167 1168 1146 1140 1133 1120 1076 1059 1047 1026 1020 1008 1000 993 999 1012 993 981 983 974 960 949 947 933 926 920 910 904 905 902 898 892 884 883 867 836 799 778 778 778 777 778 777 
2263 2187 2094 2054 2027 2030 2048 2079 2109 2157 2183 2216 2296 2345 2387 2411 2368 2347 2320 2215 2238 2207 2172 2075 2035 2001 1953 1947 1946 1946 1956 1961 1952 1887 1856 1818 1789 1737 1692 1649 1599 1576 1554 1510 1402 1361 1333 1298 1300 1319 1316 1295 1283 1268 1215 1196 1177 1160 1163 1167 1179 1187 1195 1196 1179 1155 1141 1134 1122 1079 1061 1053 1032 1025 1014 1005 996 1001 1016 1001 984 976 980 960 951 944 928 923 915 916 905 903 899 891 889 887 885 858 838 807 778 778 777 776 777 778 
2315 2243 2127 2076 2046 2056 2059 2073 2104 2140 2154 2187 2269 2315 2357 2389 2341 2317 2284 2181 2148 2116 2088 2070 2072 2080 2160 2021 2014 2025 2014 2020 1991 1906 1868 1828 1796 1733 1695 1655 1605 1584 1565 1532 1415 1378 1347 1306 1291 1307 1316 1301 1281 1251 1189 1181 1177 1181 1194 1192 1199 1198 1205 1207 1194 1164 1148 1142 1112 1100 1083 1063 1037 1027 1018 999 997 999 1015 1008 989 975 968 962 962 951 926 925 918 918 916 907 900 887 886 883 885 855 836 809 778 778 777 776 777 778 
2336 2230 2152 2092 2065 2079 2096 2112 2144 2152 2161 2169 2243 2292 2336 2371 2322 2285 2242 2155 2126 2104 2081 2108 2116 2132 2210 2193 2165 2138 2094 2048 2004 1918 1876 1837 1799 1747 1714 1672 1615 1591 1573 1534 1424 1386 1354 1312 1292 1275 1305 1302 1257 1218 1234 1214 1214 1211 1226 1219 1221 1207 1214 1217 1203 1171 1158 1158 1126 1113 1091 1075 1046 1040 1031 1009 999 997 1006 1013 994 973 971 966 968 959 937 928 925 926 920 912 906 891 889 884 873 853 828 798 779 778 777 776 777 777 
2330 2287 2196 2117 2096 2123 2126 2146 2182 2181 2178 2179 2222 2270 2319 2370 2306 2270 2213 2142 2132 2123 2121 2150 2166 2195 2262 2250 2191 2119 2082 2041 2001 1929 1889 1847 1782 1762 1741 1693 1627 1598 1574 1529 1422 1386 1359 1315 1298 1272 1288 1297 1253 1215 1267 1291 1277 1262 1253 1254 1249 1218 1221 1227 1212 1178 1166 1171 1141 1126 1104 1082 1051 1045 1034 1015 1007 998 999 1022 1000 979 970 969 972 965 947 928 921 929 927 917 914 900 894 889 880 871 853 828 780 779 778 777 777 777 
2335 2386 2269 2175 2133 2150 2151 2203 2242 2238 2207 2196 2219 2258 2306 2370 2305 2252 2211 2185 2168 2154 2224 2262 2219 2258 2302 2257 2205 2110 2071 2032 1994 1921 1883 1843 1789 1763 1739 1710 1630 1595 1553 1500 1476 1447 1394 1321 1299 1279 1282 1253 1231 1223 1294 1309 1290 1260 1261 1263 1257 1237 1230 1240 1208 1194 1189 1190 1157 1138 1114 1091 1055 1050 1039 1019 1008 998 997 1027 1005 986 968 968 971 968 968 953 929 928 930 923 920 908 902 895 890 884 864 832 780 779 778 777 777 778 
2378 2396 2320 2234 2197 2189 2219 2273 2302 2299 2251 2226 2226 2247 2291 2374 2315 2259 2226 2206 2191 2183 2278 2326 2396 2383 2304 2255 2205 2104 2063 2022 1983 1913 1883 1846 1797 1767 1736 1708 1636 1608 1585 1534 1502 1465 1429 1345 1317 1298 1257 1252 1229 1243 1313 1319 1299 1266 1266 1270 1263 1243 1235 1241 1215 1212 1207 1197 1177 1167 1137 1088 1067 1062 1044 1025 1010 999 1004 1021 1007 992 969 967 969 964 969 957 941 931 933 931 924 918 913 911 895 889 873 838 780 779 778 776 776 777 
2468 2414 2341 2263 2216 2223 2252 2296 2412 2418 2352 2266 2259 2251 2276 2369 2338 2285 2225 2226 2224 2227 2284 2350 2403 2339 2295 2250 2201 2094 2040 1985 1946 1916 1897 1869 1817 1778 1739 1712 1662 1634 1599 1541 1508 1473 1438 1357 1327 1307 1285 1279 1284 1287 1327 1330 1308 1274 1269 1273 1268 1251 1239 1240 1233 1227 1219 1207 1177 1172 1149 1093 1068 1059 1049 1029 1024 1020 1004 1004 1002 994 974 970 967 959 964 958 946 939 935 934 926 920 917 916 896 888 891 823 787 778 778 776 776 777 
2507 2438 2365 2303 2268 2277 2292 2333 2450 2475 2396 2290 2274 2266 2277 2358 2410 2367 2308 2291 2298 2294 2295 2357 2397 2309 2267 2227 2185 2067 2013 1979 1927 1916 1904 1879 1831 1802 1768 1712 1693 1662 1619 1550 1514 1481 1420 1381 1343 1316 1317 1314 1313 1309 1331 1336 1312 1278 1272 1277 1274 1266 1252 1248 1255 1236 1223 1211 1184 1172 1163 1098 1077 1062 1050 1037 1035 1031 1012 998 996 995 993 996 982 957 967 963 955 946 940 933 927 922 922 918 898 886 891 827 784 779 778 776 777 778 
2435 2464 2442 2417 2367 2357 2364 2389 2484 2492 2442 2332 2302 2282 2292 2363 2436 2451 2362 2348 2343 2364 2395 2418 2376 2265 2217 2200 2163 2059 2015 1992 1936 1931 1923 1899 1844 1815 1777 1722 1704 1678 1634 1570 1531 1492 1441 1410 1371 1334 1348 1344 1332 1315 1333 1338 1316 1281 1276 1279 1278 1271 1255 1248 1261 1249 1229 1209 1192 1179 1166 1114 1089 1070 1046 1042 1039 1035 1015 1003 996 995 999 1010 998 958 964 971 969 951 948 946 926 926 925 919 899 888 886 825 781 779 778 776 777 778 
2418 2427 2420 2383 2354 2370 2387 2432 2446 2452 2450 2445 2347 2318 2338 2380 2454 2515 2423 2405 2403 2432 2435 2400 2351 2245 2199 2158 2121 2091 2069 2053 2000 1970 1927 1906 1854 1824 1786 1727 1709 1683 1640 1570 1537 1499 1447 1420 1390 1371 1372 1358 1348 1325 1328 1335 1316 1284 1277 1279 1282 1274 1259 1253 1264 1258 1238 1209 1197 1184 1171 1141 1114 1089 1056 1047 1038 1031 1018 1006 997 995 1000 1013 1005 960 959 968 958 951 951 950 937 929 921 904 894 888 880 811 782 779 777 777 778 778 
2380 2399 2371 2322 2326 2350 2365 2402 2417 2429 2427 2419 2423 2430 2432 2441 2475 2482 2477 2456 2459 2454 2419 2383 2332 2217 2180 2147 2100 2099 2114 2121 2040 1995 1963 1896 1867 1834 1792 1732 1707 1676 1639 1570 1541 1507 1456 1434 1411 1388 1379 1363 1349 1327 1327 1336 1322 1287 1282 1282 1288 1284 1263 1257 1263 1265 1246 1211 1202 1192 1179 1165 1131 1100 1061 1045 1037 1033 1027 1020 1010 995 998 1012 1008 962 955 961 956 950 951 953 939 936 930 907 893 886 878 807 780 779 778 778 778 778 
2285 2280 2258 2283 2293 2320 2330 2370 2388 2404 2402 2402 2398 2406 2405 2413 2424 2426 2454 2438 2414 2387 2374 2351 2322 2200 2166 2134 2108 2122 2154 2175 2067 2019 1978 1904 1874 1839 1801 1740 1711 1683 1617 1581 1550 1520 1474 1447 1425 1392 1381 1362 1347 1329 1324 1332 1299 1290 1286 1286 1287 1288 1279 1256 1253 1266 1249 1218 1213 1199 1190 1181 1143 1108 1065 1047 1038 1037 1032 1026 1016 995 999 1010 1004 960 956 955 951 951 951 954 944 937 933 909 896 879 864 804 780 779 779 778 778 777 
2226 2222 2200 2193 2240 2254 2267 2301 2320 2377 2378 2381 2377 2379 2380 2383 2385 2377 2411 2400 2375 2349 2345 2335 2313 2240 2198 2185 2212 2236 2250 2201 2080 2028 1982 1917 1887 1859 1816 1745 1719 1690 1623 1586 1556 1529 1484 1462 1445 1388 1378 1365 1352 1329 1322 1329 1303 1293 1291 1290 1292 1295 1284 1261 1253 1264 1250 1222 1215 1209 1192 1187 1152 1122 1085 1053 1040 1038 1034 1027 1019 998 1002 1010 977 963 965 961 950 943 949 949 952 944 935 917 901 888 860 801 780 778 778 778 778 777 
2159 2155 2147 2176 2202 2218 2234 2268 2282 2306 2315 2316 2315 2327 2325 2343 2339 2354 2363 2354 2337 2315 2310 2306 2273 2269 2260 2256 2273 2291 2264 2207 2116 2067 2020 1944 1908 1866 1825 1751 1722 1693 1627 1593 1562 1537 1493 1469 1450 1393 1380 1367 1352 1328 1322 1319 1306 1298 1297 1295 1296 1294 1288 1269 1255 1257 1250 1231 1213 1208 1190 1185 1152 1124 1094 1068 1048 1037 1034 1027 1022 1002 1005 1009 976 973 974 968 955 941 947 944 939 939 932 913 904 886 825 803 784 779 778 778 778 777 
2094 2093 2097 2141 2168 2193 2204 2241 2257 2272 2281 2289 2281 2292 2296 2287 2265 2291 2290 2279 2256 2246 2276 2272 2246 2242 2246 2255 2258 2290 2282 2184 2132 2081 2037 1955 1916 1883 1804 1761 1728 1700 1650 1616 1575 1524 1495 1477 1455 1400 1382 1369 1341 1328 1323 1317 1306 1299 1303 1307 1305 1296 1288 1285 1273 1256 1251 1239 1213 1212 1186 1180 1158 1129 1100 1079 1055 1036 1034 1027 1022 1012 1005 1008 981 984 981 973 954 938 939 928 922 912 906 905 888 870 813 802 788 780 778 778 777 778 
2001 2008 2019 2060 2100 2131 2175 2216 2234 2239 2239 2249 2244 2263 2268 2259 2234 2253 2249 2232 2218 2214 2209 2196 2180 2175 2176 2181 2228 2246 2256 2200 2149 2103 2054 1965 1928 1892 1818 1775 1742 1712 1660 1629 1596 1532 1496 1476 1461 1409 1385 1371 1342 1330 1323 1317 1305 1300 1307 1320 1313 1302 1292 1287 1281 1267 1231 1233 1211 1217 1192 1172 1161 1114 1104 1086 1060 1036 1033 1028 1022 1010 1003 1005 980 982 979 975 961 941 934 933 935 934 909 875 852 837 819 799 790 782 778 778 777 777 
1987 1989 2000 2026 2054 2086 2138 2158 2163 2161 2158 2160 2213 2240 2241 2233 2205 2213 2211 2189 2189 2187 2175 2160 2147 2145 2150 2155 2153 2154 2159 2183 2150 2133 2091 1970 1935 1904 1833 1795 1756 1721 1664 1643 1613 1542 1506 1478 1465 1420 1389 1370 1342 1334 1327 1316 1301 1299 1311 1323 1320 1308 1300 1282 1288 1280 1233 1233 1214 1216 1194 1171 1159 1113 1104 1093 1072 1031 1023 1026 1012 1006 999 993 980 984 983 976 968 951 938 934 938 936 918 914 899 869 817 793 782 778 778 778 777 775 
1987 1979 1985 1997 2017 2042 2100 2123 2127 2120 2120 2127 2142 2179 2186 2182 2160 2125 2131 2155 2160 2154 2139 2124 2116 2114 2126 2130 2119 2117 2115 2133 2124 2135 2057 2005 1962 1935 1871 1839 1798 1734 1673 1653 1628 1549 1510 1481 1465 1430 1394 1372 1341 1333 1331 1321 1301 1300 1316 1324 1326 1319 1310 1281 1288 1288 1240 1229 1215 1218 1196 1173 1162 1121 1104 1091 1075 1035 1024 1016 1002 997 994 985 983 983 984 981 977 964 950 940 942 938 914 917 906 873 809 789 779 778 778 778 778 775 
2004 1984 1972 1987 1993 2007 2048 2081 2095 2090 2090 2098 2112 2148 2152 2152 2136 2087 2094 2094 2092 2081 2070 2064 2063 2089 2096 2097 2086 2088 2078 2076 2093 2116 2088 2032 1988 1953 1891 1853 1810 1718 1689 1648 1608 1559 1525 1482 1455 1434 1400 1378 1341 1334 1334 1308 1299 1300 1316 1324 1328 1320 1301 1282 1281 1293 1259 1234 1215 1222 1198 1177 1170 1129 1113 1083 1077 1037 1024 1019 1004 996 990 983 985 987 990 986 988 983 969 946 947 939 911 911 896 867 811 785 779 778 779 778 777 774 
2029 2001 1979 1964 1969 1974 1983 2004 2011 2024 2064 2064 2077 2112 2117 2123 2108 2055 2061 2062 2060 2047 2037 2036 2037 2029 2018 2020 2014 2002 1988 1993 2055 2074 2087 2057 2006 1970 1900 1853 1807 1719 1685 1643 1602 1552 1527 1491 1444 1432 1407 1378 1347 1335 1337 1308 1298 1297 1311 1323 1330 1323 1302 1281 1277 1287 1269 1241 1219 1225 1208 1183 1184 1126 1124 1092 1064 1042 1029 1025 1005 995 991 982 983 988 993 986 988 989 960 947 947 936 919 907 879 854 805 786 780 778 778 777 777 776 
2058 2021 1970 1961 1960 1966 1969 1976 1984 1998 2014 2030 2027 2029 2032 2041 2043 2030 2036 2034 2029 2013 2006 2009 2006 1990 1979 1979 1975 1964 1952 1954 1952 1944 1977 1982 1985 1984 1900 1855 1805 1706 1670 1634 1596 1538 1521 1492 1442 1428 1406 1380 1352 1336 1333 1305 1295 1292 1297 1319 1332 1326 1300 1281 1276 1280 1276 1249 1224 1229 1210 1183 1188 1129 1125 1107 1072 1059 1043 1026 1011 997 991 983 982 987 992 990 986 989 967 948 946 942 925 908 868 826 804 785 779 778 777 777 774 775 
2083 2036 1970 1961 1954 1953 1960 1961 1966 1967 1970 1986 2004 2006 1996 2003 1987 1990 1986 1979 1960 1951 1974 1977 1968 1949 1939 1936 1933 1919 1918 1905 1898 1892 1913 1916 1924 1922 1935 1905 1836 1717 1662 1620 1552 1524 1508 1485 1437 1422 1405 1367 1354 1338 1333 1306 1295 1291 1292 1312 1330 1327 1300 1285 1278 1275 1284 1256 1230 1227 1208 1184 1187 1132 1122 1115 1081 1067 1049 1030 1014 1006 993 994 989 987 1005 1018 1000 987 968 950 948 939 928 907 871 823 802 783 779 778 777 777 778 776 
2131 2044 1971 1949 1939 1932 1934 1948 1951 1943 1938 1941 1952 1977 1989 1981 1971 1974 1965 1954 1939 1931 1936 1925 1910 1882 1854 1833 1820 1865 1863 1846 1835 1828 1846 1849 1859 1861 1881 1901 1854 1718 1663 1619 1536 1506 1488 1467 1429 1418 1403 1369 1356 1341 1333 1309 1295 1290 1296 1306 1324 1328 1300 1286 1280 1276 1282 1262 1235 1213 1205 1192 1163 1136 1121 1119 1089 1074 1057 1033 1014 1011 1001 1002 995 993 1017 1030 1009 994 973 950 939 933 923 899 869 839 808 784 779 777 777 778 775 774 
2249 2071 1980 1949 1933 1919 1919 1918 1916 1900 1893 1888 1880 1931 1945 1953 1944 1937 1932 1927 1917 1910 1914 1890 1868 1834 1808 1783 1770 1770 1755 1744 1727 1718 1727 1778 1785 1799 1806 1827 1849 1734 1674 1625 1534 1501 1477 1457 1424 1411 1400 1370 1361 1348 1338 1320 1305 1290 1292 1297 1316 1327 1302 1286 1281 1275 1276 1261 1235 1212 1206 1198 1163 1141 1126 1116 1101 1081 1066 1029 1016 1011 1007 1007 1001 998 1043 1038 1020 1003 976 954 942 930 924 903 876 831 810 788 778 777 778 777 776 775 
2335 2158 1989 1950 1927 1907 1909 1903 1897 1882 1872 1865 1855 1864 1865 1868 1871 1860 1846 1852 1889 1882 1873 1840 1811 1788 1747 1741 1733 1729 1711 1702 1687 1681 1679 1685 1679 1688 1700 1716 1732 1760 1684 1627 1533 1498 1470 1448 1418 1403 1395 1372 1361 1349 1339 1328 1309 1293 1290 1290 1296 1313 1302 1292 1279 1274 1271 1259 1235 1212 1207 1208 1165 1146 1130 1115 1108 1086 1074 1046 1019 1012 1015 1016 1008 1009 1048 1044 1028 1006 978 961 940 934 924 913 887 829 810 790 778 777 777 777 775 775 
2446 2323 2012 1966 1930 1901 1893 1887 1879 1858 1856 1848 1832 1831 1831 1831 1837 1828 1818 1820 1815 1805 1793 1762 1747 1735 1722 1715 1705 1698 1681 1672 1659 1645 1643 1644 1636 1641 1650 1667 1708 1727 1706 1645 1539 1494 1463 1422 1412 1398 1391 1370 1360 1347 1336 1332 1313 1298 1289 1290 1292 1312 1305 1294 1276 1270 1261 1248 1229 1212 1211 1216 1168 1151 1135 1117 1117 1092 1076 1054 1021 1011 1019 1022 1013 1011 1047 1049 1036 1020 999 979 945 934 921 913 892 840 813 788 778 776 776 775 775 774 
2530 2380 2028 1991 1964 1923 1903 1890 1873 1842 1835 1831 1817 1815 1815 1811 1813 1813 1807 1796 1792 1783 1772 1749 1741 1741 1742 1735 1729 1724 1725 1726 1683 1650 1636 1624 1615 1605 1608 1617 1649 1668 1678 1654 1539 1491 1459 1420 1401 1389 1380 1364 1355 1346 1331 1332 1318 1306 1288 1285 1287 1311 1306 1300 1278 1270 1257 1245 1217 1213 1215 1231 1177 1160 1140 1109 1123 1097 1079 1063 1029 1011 1028 1027 1020 1015 1047 1046 1038 1015 1008 988 964 945 933 919 901 843 815 786 777 777 776 776 774 774 
2510 2275 2071 2007 1971 1943 1931 1911 1877 1855 1842 1828 1820 1819 1817 1804 1806 1799 1794 1785 1778 1772 1761 1752 1757 1768 1773 1761 1751 1742 1752 1755 1751 1717 1711 1690 1669 1634 1618 1586 1593 1609 1630 1640 1537 1489 1457 1421 1402 1387 1376 1359 1352 1342 1324 1325 1327 1321 1301 1288 1279 1307 1305 1307 1284 1265 1254 1242 1215 1212 1213 1233 1185 1162 1142 1107 1118 1100 1082 1075 1049 1024 1022 1032 1027 1013 1045 1042 1037 1021 1012 993 972 947 934 920 881 848 818 784 778 778 777 777 776 775 
2548 2315 2141 2042 2004 1980 1966 1938 1907 1886 1866 1854 1856 1858 1856 1840 1838 1828 1820 1822 1810 1807 1791 1769 1781 1796 1802 1785 1775 1772 1781 1787 1784 1755 1751 1729 1685 1659 1641 1625 1576 1543 1540 1545 1518 1487 1458 1423 1404 1387 1361 1353 1347 1339 1321 1316 1320 1324 1309 1291 1277 1299 1301 1307 1292 1256 1246 1237 1216 1216 1212 1232 1191 1166 1143 1109 1114 1100 1082 1079 1057 1032 1019 1028 1031 1018 1031 1027 1026 1020 1012 997 979 950 937 929 890 860 830 786 778 777 776 775 776 777 
2603 2400 2270 2178 2117 2062 2042 1977 1948 1924 1904 1897 1895 1906 1912 1894 1889 1876 1863 1864 1851 1847 1840 1836 1847 1853 1838 1832 1833 1837 1807 1814 1809 1794 1786 1772 1719 1697 1677 1652 1596 1565 1526 1507 1504 1481 1455 1419 1401 1388 1361 1346 1341 1335 1320 1314 1319 1328 1316 1298 1281 1291 1297 1304 1274 1258 1244 1232 1224 1223 1216 1238 1212 1179 1145 1113 1108 1102 1084 1084 1067 1041 1012 1022 1026 1016 1023 1020 1017 1012 1009 1000 982 953 941 935 892 866 830 787 778 776 775 775 777 777 
2654 2500 2364 2255 2164 2114 2087 2080 2073 2042 2023 2024 2032 2051 1972 1958 1950 1958 1925 1902 1911 1911 1934 1903 1899 1895 1878 1873 1876 1891 1895 1901 1901 1917 1886 1861 1759 1740 1719 1683 1625 1595 1549 1498 1486 1478 1464 1414 1400 1389 1362 1344 1330 1319 1306 1307 1307 1316 1324 1303 1287 1277 1291 1299 1277 1262 1247 1231 1229 1226 1222 1251 1224 1190 1152 1119 1100 1107 1095 1096 1074 1052 1016 1015 1019 999 1008 1011 1011 1004 999 991 965 954 947 943 887 855 821 779 778 777 777 774 777 777 
2652 2552 2431 2310 2246 2180 2137 2129 2108 2102 2088 2085 2113 2130 2103 2064 2036 2006 1962 1947 1945 1966 2013 1994 1984 1938 1926 1926 1932 1952 1957 1955 2022 2005 1948 1917 1864 1819 1774 1718 1651 1638 1577 1534 1518 1504 1474 1430 1410 1397 1364 1344 1329 1320 1303 1304 1308 1311 1326 1316 1299 1271 1277 1289 1278 1265 1249 1233 1231 1226 1225 1257 1232 1198 1159 1122 1098 1105 1096 1099 1091 1072 1041 1018 1005 995 995 1004 1007 1000 996 992 965 956 957 948 884 854 820 778 777 776 776 777 778 779 
2611 2607 2527 2423 2381 2258 2197 2174 2133 2144 2145 2171 2183 2188 2138 2093 2058 2032 1992 1971 1974 1993 2047 2116 2170 2053 2058 1998 2016 2049 2051 2024 2104 2077 2021 1980 1903 1836 1777 1700 1703 1692 1663 1612 1579 1542 1465 1434 1421 1403 1370 1353 1339 1316 1311 1298 1302 1302 1321 1321 1287 1274 1266 1282 1284 1267 1250 1232 1230 1226 1218 1257 1237 1206 1166 1125 1100 1101 1094 1099 1097 1084 1047 1028 1015 1010 1003 994 993 1001 999 999 973 957 957 949 893 861 824 779 775 774 775 777 778 778 
2602 2612 2564 2506 2433 2373 2324 2280 2194 2188 2193 2224 2246 2226 2171 2114 2082 2055 2038 2013 2001 2005 2039 2118 2193 2110 2122 2161 2172 2255 2252 2192 2222 2141 2043 1968 1872 1828 1783 1778 1767 1746 1718 1644 1605 1565 1481 1443 1425 1408 1378 1363 1348 1316 1306 1293 1293 1294 1308 1317 1281 1274 1263 1274 1283 1266 1250 1221 1227 1225 1218 1254 1246 1216 1140 1131 1107 1098 1098 1104 1105 1072 1053 1035 1019 1021 1012 995 994 999 1001 1003 979 969 958 946 904 878 848 785 776 774 775 776 778 778 
2573 2569 2559 2559 2457 2426 2418 2284 2240 2226 2223 2254 2289 2303 2218 2182 2145 2082 2083 2065 2040 2047 2061 2120 2184 2206 2174 2210 2241 2321 2336 2289 2219 2147 2019 1913 1869 1865 1878 1849 1810 1781 1750 1657 1624 1580 1498 1455 1428 1409 1378 1362 1347 1317 1304 1294 1280 1272 1281 1301 1284 1274 1263 1270 1280 1263 1246 1219 1218 1225 1213 1250 1245 1216 1144 1134 1110 1097 1110 1121 1109 1082 1054 1040 1020 1026 1017 998 993 997 998 1003 982 973 963 940 911 886 858 799 777 774 776 777 776 777 
2488 2468 2508 2511 2521 2525 2505 2327 2316 2316 2314 2330 2341 2347 2262 2217 2179 2159 2155 2157 2157 2105 2097 2121 2175 2281 2249 2266 2359 2406 2408 2348 2207 2130 2009 1930 1938 1971 1988 1908 1856 1808 1726 1686 1643 1597 1504 1466 1440 1404 1385 1359 1341 1313 1299 1289 1281 1264 1272 1289 1281 1271 1262 1255 1274 1262 1247 1221 1216 1223 1211 1244 1235 1213 1145 1128 1112 1095 1120 1130 1115 1089 1060 1041 1024 1025 1029 1012 993 993 994 1003 986 975 963 935 913 887 858 800 779 777 778 777 776 775 
2433 2415 2393 2390 2425 2430 2427 2434 2399 2416 2444 2459 2423 2408 2350 2303 2255 2218 2190 2192 2198 2142 2126 2150 2199 2333 2370 2415 2512 2509 2420 2350 2213 2156 2087 2037 2038 2075 2047 1915 1860 1813 1739 1701 1669 1624 1530 1487 1456 1414 1399 1379 1349 1319 1304 1295 1265 1256 1262 1278 1280 1265 1265 1263 1268 1262 1248 1220 1215 1219 1218 1242 1247 1230 1150 1124 1108 1090 1119 1135 1118 1092 1059 1038 1021 1025 1031 1017 993 993 992 1000 988 971 966 948 921 893 863 804 782 778 778 778 776 775 
2375 2359 2341 2345 2362 2366 2376 2383 2390 2415 2462 2478 2450 2405 2402 2396 2348 2296 2239 2232 2236 2189 2164 2173 2213 2362 2400 2484 2562 2543 2468 2410 2329 2293 2267 2203 2177 2124 2061 1928 1880 1838 1768 1732 1688 1634 1545 1511 1481 1419 1401 1379 1356 1318 1302 1290 1267 1250 1247 1268 1277 1255 1262 1241 1261 1260 1252 1223 1214 1212 1216 1238 1250 1234 1172 1132 1116 1089 1109 1136 1125 1106 1071 1041 1010 1018 1028 1021 993 992 992 1000 991 979 967 950 929 897 838 812 788 778 778 777 775 773 
2307 2301 2279 2302 2309 2306 2333 2323 2330 2355 2406 2421 2402 2369 2346 2372 2393 2380 2364 2343 2336 2229 2195 2197 2307 2377 2435 2529 2577 2547 2512 2439 2391 2378 2356 2287 2221 2144 2074 1966 1921 1879 1798 1739 1697 1659 1571 1524 1484 1432 1411 1390 1364 1324 1308 1295 1266 1247 1238 1246 1252 1243 1255 1222 1248 1263 1257 1229 1214 1212 1212 1235 1249 1235 1178 1140 1121 1089 1106 1134 1125 1112 1102 1068 1025 1006 1010 1013 990 990 990 998 997 986 971 954 937 907 846 825 794 777 777 778 776 774 
2217 2195 2182 2196 2200 2257 2275 2273 2280 2313 2354 2358 2354 2318 2296 2325 2348 2387 2384 2380 2367 2289 2245 2256 2386 2445 2508 2535 2542 2515 2491 2454 2430 2413 2401 2318 2241 2154 2034 1981 1938 1894 1811 1770 1733 1645 1593 1555 1511 1442 1417 1395 1352 1333 1316 1301 1267 1247 1233 1242 1242 1236 1248 1220 1239 1260 1263 1239 1223 1211 1210 1231 1249 1236 1180 1147 1122 1089 1101 1130 1130 1106 1111 1081 1035 1010 1002 998 988 989 990 990 999 994 977 961 945 918 862 832 795 778 778 778 776 775 
2170 2144 2136 2142 2146 2162 2163 2174 2181 2213 2233 2234 2288 2269 2251 2276 2316 2346 2364 2366 2340 2279 2243 2278 2393 2443 2502 2538 2465 2421 2395 2368 2361 2350 2380 2309 2249 2164 2044 1990 1942 1897 1809 1767 1734 1660 1620 1574 1524 1452 1426 1412 1368 1352 1333 1320 1269 1247 1232 1230 1231 1228 1231 1216 1230 1256 1256 1243 1231 1219 1207 1211 1239 1210 1183 1149 1123 1089 1095 1126 1116 1104 1114 1087 1045 1015 999 991 989 989 990 990 999 998 980 962 953 932 871 840 804 782 778 777 774 778 
2115 2095 2079 2092 2097 2112 2122 2120 2126 2150 2163 2171 2175 2170 2173 2212 2239 2271 2335 2336 2284 2252 2234 2273 2371 2409 2453 2507 2422 2388 2355 2325 2312 2305 2307 2291 2213 2156 2054 2001 1944 1904 1829 1784 1747 1673 1640 1590 1539 1459 1432 1415 1375 1359 1342 1333 1288 1263 1239 1217 1212 1209 1215 1213 1222 1246 1254 1246 1235 1224 1207 1205 1225 1210 1187 1153 1125 1089 1090 1110 1119 1100 1111 1104 1052 1019 999 993 991 994 999 993 995 998 967 963 952 925 866 831 809 791 783 777 776 776 
