ncols 75
nrows 77
xllcorner -1620000
yllcorner 438000
cellsize 100
NODATA_value -9999
1323 1257 1250 1236 1337 1385 1445 1494 1541 1554 1561 1562 1552 1535 1506 1451 1424 1381 1289 1272 1237 1183 1076 1017 964 850 811 765 746 808 832 871 965 1016 1073 1127 1202 1222 1241 1261 1269 1295 1333 1351 1373 1393 1408 1303 1266 1196 1275 1312 1340 1362 1363 1367 1368 1362 1388 1407 1424 1439 1405 1357 1262 1242 1275 1328 1445 1465 1507 1516 1465 1429 1395 
1319 1311 1310 1312 1394 1446 1471 1523 1592 1580 1584 1591 1581 1562 1536 1473 1430 1384 1336 1291 1225 1170 1092 1043 993 878 832 803 779 806 841 856 960 1009 1061 1110 1193 1238 1273 1301 1321 1352 1381 1407 1425 1438 1432 1396 1328 1278 1299 1352 1391 1403 1406 1409 1410 1407 1431 1446 1467 1462 1425 1388 1296 1265 1286 1335 1464 1519 1559 1575 1561 1548 1514 
1361 1369 1368 1364 1410 1470 1513 1586 1610 1629 1632 1613 1598 1583 1526 1500 1441 1423 1364 1309 1264 1218 1127 1068 1009 887 844 818 802 798 852 895 973 1022 1063 1103 1177 1206 1235 1306 1342 1386 1419 1442 1455 1463 1452 1405 1368 1334 1326 1378 1411 1463 1483 1492 1499 1523 1536 1494 1514 1489 1454 1412 1320 1289 1303 1419 1474 1535 1569 1606 1607 1605 1530 
1401 1422 1429 1419 1453 1492 1542 1605 1623 1634 1633 1615 1606 1593 1539 1514 1495 1475 1416 1367 1309 1193 1147 1085 1018 895 856 833 798 799 860 909 1001 1044 1091 1132 1207 1242 1276 1303 1318 1370 1421 1496 1483 1488 1478 1449 1410 1366 1350 1403 1441 1478 1511 1522 1533 1568 1586 1596 1578 1546 1500 1442 1344 1321 1328 1428 1486 1549 1596 1650 1657 1657 1576 
1469 1502 1526 1537 1547 1582 1568 1629 1631 1634 1634 1619 1606 1594 1546 1525 1504 1482 1423 1381 1314 1180 1134 1081 1016 916 872 846 799 815 868 917 1015 1064 1114 1204 1244 1275 1305 1356 1368 1378 1469 1508 1525 1530 1531 1510 1470 1385 1359 1410 1451 1500 1521 1553 1567 1609 1628 1642 1603 1562 1506 1443 1353 1334 1357 1457 1517 1575 1627 1714 1700 1708 1619 
1512 1540 1567 1584 1592 1615 1637 1639 1634 1637 1635 1607 1589 1580 1544 1530 1502 1477 1423 1390 1335 1200 1151 1097 1043 939 882 846 810 851 888 931 1024 1079 1130 1231 1276 1311 1340 1395 1415 1420 1468 1514 1538 1551 1563 1549 1523 1437 1419 1458 1487 1553 1567 1595 1626 1650 1669 1683 1612 1564 1508 1406 1362 1343 1371 1468 1528 1587 1638 1738 1776 1808 1721 
1561 1587 1612 1636 1639 1645 1652 1641 1634 1631 1612 1600 1581 1565 1526 1498 1462 1403 1389 1389 1353 1248 1194 1130 1033 980 905 854 819 853 886 927 1023 1083 1138 1248 1304 1354 1395 1459 1476 1463 1488 1529 1563 1575 1591 1595 1576 1504 1471 1497 1534 1579 1604 1623 1692 1723 1744 1739 1641 1575 1520 1415 1370 1359 1387 1484 1549 1611 1705 1765 1814 1849 1767 
1675 1701 1720 1726 1677 1675 1668 1646 1636 1624 1604 1595 1580 1559 1505 1466 1429 1367 1352 1341 1317 1280 1231 1173 1059 1000 934 870 833 861 895 982 1028 1071 1132 1259 1314 1364 1429 1463 1484 1501 1548 1572 1592 1609 1641 1626 1624 1547 1508 1532 1572 1628 1642 1658 1729 1757 1772 1767 1661 1585 1524 1431 1405 1403 1424 1520 1584 1634 1724 1783 1839 1884 1816 
1735 1763 1768 1763 1742 1718 1698 1655 1639 1623 1601 1588 1573 1551 1474 1428 1396 1338 1313 1303 1280 1264 1228 1179 1060 999 934 883 847 873 900 1003 1058 1103 1137 1258 1313 1360 1427 1461 1484 1509 1563 1589 1615 1659 1670 1681 1691 1609 1587 1595 1692 1690 1706 1713 1759 1786 1816 1770 1702 1617 1546 1468 1440 1458 1474 1546 1606 1666 1796 1851 1901 1948 1975 
1794 1809 1799 1779 1757 1735 1685 1661 1643 1623 1585 1563 1543 1484 1442 1393 1369 1326 1294 1281 1253 1240 1217 1177 1049 983 924 879 853 879 909 1011 1077 1130 1180 1282 1321 1357 1426 1460 1488 1516 1575 1605 1631 1677 1696 1712 1723 1651 1625 1639 1730 1788 1816 1843 1870 1893 1910 1861 1747 1648 1577 1513 1496 1538 1537 1577 1629 1694 1831 1900 1953 2041 2046 
1847 1832 1817 1789 1767 1744 1689 1662 1640 1617 1575 1551 1528 1466 1426 1381 1341 1300 1274 1242 1192 1164 1180 1153 1040 975 920 849 857 884 926 1026 1087 1136 1244 1291 1329 1364 1424 1453 1478 1501 1550 1588 1634 1686 1715 1738 1751 1690 1665 1676 1753 1805 1851 1888 1931 1950 1963 1906 1837 1751 1660 1583 1559 1593 1581 1612 1676 1717 1864 1931 1982 2075 2104 
1848 1836 1818 1777 1754 1729 1669 1652 1627 1607 1556 1526 1499 1436 1399 1351 1317 1275 1247 1217 1176 1144 1100 1066 1000 955 914 864 866 893 938 1042 1089 1139 1251 1293 1328 1355 1402 1430 1450 1490 1523 1571 1604 1699 1747 1783 1809 1782 1749 1692 1757 1810 1860 1902 1969 1993 2009 1929 1857 1768 1694 1618 1593 1622 1653 1677 1730 1789 1902 1956 1983 2085 2124 
1839 1820 1788 1764 1741 1713 1649 1617 1585 1528 1495 1460 1427 1396 1361 1319 1287 1239 1211 1184 1144 1114 1079 1043 972 938 914 881 877 925 978 1081 1122 1158 1217 1271 1301 1328 1368 1391 1414 1469 1508 1563 1600 1707 1761 1805 1841 1840 1799 1766 1773 1825 1883 1971 2017 2028 2051 1939 1858 1776 1685 1669 1635 1646 1681 1708 1753 1862 1915 1970 2027 2131 2171 
1826 1792 1766 1741 1710 1682 1616 1586 1560 1497 1464 1429 1390 1320 1288 1248 1183 1170 1155 1152 1108 1080 1046 991 960 944 927 886 882 935 990 1079 1115 1147 1203 1233 1254 1274 1315 1364 1405 1467 1513 1562 1606 1714 1766 1812 1866 1872 1849 1806 1784 1831 1886 1973 2026 2078 2122 1988 1919 1850 1750 1713 1681 1667 1705 1743 1771 1875 1930 1985 2044 2154 2195 
1777 1774 1718 1684 1672 1643 1589 1551 1527 1466 1434 1402 1359 1290 1257 1231 1215 1209 1199 1180 1149 1131 1115 1063 1026 995 945 900 890 937 1022 1062 1104 1142 1192 1219 1240 1286 1333 1378 1425 1508 1552 1594 1684 1732 1780 1817 1884 1899 1904 1865 1798 1821 1873 1976 2031 2084 2137 2032 1962 1893 1784 1784 1761 1725 1773 1797 1816 1893 1950 2010 2071 2179 2210 
1789 1778 1724 1683 1644 1604 1537 1493 1465 1397 1403 1371 1332 1276 1266 1264 1267 1269 1258 1241 1204 1198 1177 1110 1065 1028 995 957 931 914 983 1026 1090 1128 1173 1197 1230 1301 1348 1393 1441 1532 1575 1618 1698 1741 1783 1824 1893 1923 1962 1905 1867 1882 1857 1981 2033 2087 2160 2083 2008 1928 1818 1810 1794 1762 1797 1815 1830 1914 1978 2042 2099 2213 2231 
1802 1787 1720 1684 1653 1588 1545 1488 1448 1357 1335 1316 1327 1342 1354 1357 1322 1330 1317 1279 1267 1256 1231 1151 1109 1072 1029 986 964 929 965 1010 1040 1058 1138 1194 1240 1331 1362 1408 1456 1549 1585 1622 1680 1728 1777 1822 1886 1916 1959 1936 1900 1924 1938 2004 2055 2107 2205 2165 2042 1957 1852 1845 1832 1780 1803 1823 1847 1922 1977 2034 2155 2214 2238 
1826 1797 1723 1693 1665 1597 1545 1486 1451 1364 1326 1324 1366 1379 1391 1396 1425 1423 1404 1367 1350 1320 1280 1179 1141 1105 1032 1013 998 967 951 991 1018 1098 1147 1192 1240 1333 1375 1414 1445 1509 1533 1570 1665 1721 1761 1805 1875 1914 1957 1972 1925 1925 1943 2013 2056 2104 2206 2205 2125 2051 1940 1923 1908 1860 1812 1838 1871 1925 1974 2037 2161 2210 2217 
1850 1816 1745 1713 1681 1588 1537 1491 1452 1369 1346 1363 1398 1414 1430 1438 1462 1453 1430 1396 1376 1344 1301 1239 1211 1184 1114 1087 1062 1003 949 975 1006 1088 1130 1181 1227 1318 1359 1389 1444 1472 1512 1572 1654 1696 1733 1803 1848 1887 1932 1997 1959 1948 1993 2018 2053 2095 2204 2222 2160 2098 2007 1986 1982 1925 1924 1922 1928 1951 1976 2021 2144 2197 2200 
1876 1795 1760 1724 1686 1598 1555 1515 1421 1383 1405 1444 1478 1452 1467 1489 1493 1473 1449 1416 1400 1369 1337 1282 1252 1215 1150 1129 1103 1074 1031 1010 987 1050 1084 1161 1206 1281 1323 1357 1414 1459 1508 1556 1632 1673 1708 1779 1820 1869 1916 2010 2052 2082 2063 2065 2089 2101 2207 2249 2202 2107 2075 2047 2044 1996 1989 1984 1976 1975 1991 2036 2136 2185 2242 
1895 1812 1775 1736 1695 1615 1565 1517 1420 1399 1433 1472 1503 1521 1542 1559 1542 1519 1497 1466 1421 1400 1345 1314 1280 1237 1187 1162 1136 1087 1064 1043 1014 1042 1074 1115 1164 1254 1295 1339 1427 1464 1490 1526 1608 1644 1686 1757 1801 1854 1902 1997 2038 2084 2138 2123 2120 2146 2237 2264 2262 2245 2218 2116 2104 2080 2066 2065 2028 2026 2037 2058 2136 2192 2241 
1946 1857 1807 1760 1708 1622 1565 1512 1416 1424 1461 1494 1534 1553 1574 1588 1569 1546 1526 1492 1468 1445 1382 1338 1301 1303 1225 1195 1166 1118 1090 1067 1034 1037 1080 1120 1221 1259 1296 1340 1426 1473 1514 1580 1607 1643 1677 1762 1800 1843 1939 1978 2025 2075 2172 2188 2185 2202 2263 2240 2230 2229 2225 2225 2226 2226 2218 2222 2157 2134 2091 2078 2134 2182 2233 
1965 1864 1809 1757 1637 1571 1522 1477 1431 1461 1486 1522 1571 1584 1605 1615 1595 1569 1554 1518 1493 1465 1399 1362 1345 1344 1301 1278 1250 1189 1154 1121 1059 1022 1070 1109 1202 1249 1287 1328 1413 1458 1497 1555 1581 1626 1663 1736 1770 1802 1889 1934 1986 2044 2170 2222 2252 2268 2246 2219 2207 2194 2187 2189 2211 2209 2210 2221 2223 2193 2173 2164 2142 2187 2248 
1970 1842 1792 1734 1610 1545 1495 1458 1441 1476 1518 1599 1624 1637 1646 1666 1642 1590 1562 1540 1513 1480 1410 1392 1389 1365 1342 1322 1290 1224 1182 1142 1099 1024 1042 1082 1172 1217 1258 1313 1395 1436 1472 1525 1560 1595 1624 1697 1739 1782 1882 1932 1985 2039 2152 2222 2289 2207 2173 2168 2178 2176 2163 2157 2165 2160 2160 2174 2217 2233 2227 2203 2197 2230 2258 
1979 1866 1802 1739 1594 1518 1474 1453 1454 1491 1528 1606 1634 1652 1664 1687 1664 1638 1595 1564 1523 1495 1471 1420 1414 1386 1374 1358 1327 1249 1202 1156 1082 1054 1036 1070 1156 1203 1239 1290 1334 1379 1424 1503 1537 1567 1606 1703 1757 1810 1922 1968 2011 2056 2157 2225 2283 2195 2152 2138 2136 2116 2109 2110 2092 2091 2094 2132 2172 2189 2193 2179 2193 2215 2229 
1929 1856 1783 1725 1586 1539 1516 1469 1484 1511 1535 1607 1640 1663 1682 1709 1686 1662 1603 1569 1532 1524 1501 1481 1455 1407 1392 1376 1359 1268 1221 1180 1123 1094 1055 1069 1132 1171 1200 1289 1349 1400 1453 1538 1577 1605 1680 1722 1778 1827 1938 1990 2037 2134 2174 2220 2261 2198 2154 2120 2108 2101 2096 2096 2078 2076 2079 2092 2110 2111 2108 2071 2081 2158 2178 
1913 1827 1757 1703 1594 1582 1571 1572 1563 1554 1556 1611 1653 1697 1743 1731 1708 1680 1608 1574 1553 1554 1527 1504 1474 1421 1412 1408 1397 1345 1305 1264 1212 1177 1130 1081 1113 1144 1182 1295 1358 1413 1470 1561 1601 1638 1698 1735 1773 1816 1909 1954 1995 2091 2147 2192 2234 2209 2164 2127 2089 2084 2084 2083 2073 2065 2069 2091 2099 2099 2089 2009 2019 2046 2072 
1902 1808 1735 1688 1632 1643 1639 1626 1604 1578 1570 1615 1666 1721 1788 1763 1732 1693 1625 1601 1573 1572 1557 1534 1502 1451 1453 1454 1418 1384 1342 1307 1246 1208 1163 1083 1105 1143 1179 1282 1352 1411 1475 1549 1581 1617 1685 1712 1741 1782 1878 1925 1966 2072 2120 2169 2220 2252 2213 2175 2096 2089 2070 2049 2060 2050 2050 2067 2074 2079 2071 1981 1983 2003 2018 
1804 1768 1731 1717 1691 1722 1713 1660 1637 1607 1586 1621 1670 1731 1804 1775 1737 1696 1632 1626 1632 1616 1602 1591 1567 1533 1492 1487 1451 1411 1373 1343 1275 1236 1198 1112 1103 1137 1173 1266 1329 1386 1456 1487 1518 1555 1637 1680 1713 1813 1870 1921 1967 2064 2104 2154 2213 2240 2205 2192 2131 2106 2078 2052 2017 2011 2016 2017 2020 2023 2051 1981 1982 1981 1985 
1773 1760 1747 1805 1848 1802 1759 1721 1702 1658 1624 1634 1677 1735 1817 1791 1742 1696 1647 1653 1665 1640 1620 1609 1593 1561 1543 1531 1491 1458 1430 1400 1333 1258 1222 1158 1119 1135 1170 1258 1314 1362 1435 1474 1515 1562 1656 1700 1747 1838 1878 1914 1948 2043 2128 2178 2273 2248 2217 2209 2157 2128 2098 2053 2034 2017 2004 2004 2003 2001 2000 1995 1985 1970 1955 
1789 1786 1783 1879 1870 1808 1768 1727 1696 1649 1637 1667 1709 1754 1839 1795 1743 1674 1673 1687 1698 1673 1646 1626 1595 1584 1568 1552 1506 1482 1455 1424 1364 1331 1301 1226 1173 1168 1229 1274 1317 1370 1446 1484 1527 1573 1671 1717 1762 1841 1875 1901 1926 2020 2070 2124 2227 2263 2298 2301 2258 2158 2123 2077 2059 2043 2024 1999 1994 1989 1985 1987 1978 1963 1944 
1858 1818 1833 1929 1880 1818 1775 1727 1691 1643 1645 1685 1729 1770 1840 1791 1748 1718 1737 1767 1771 1725 1694 1652 1618 1602 1590 1571 1519 1499 1475 1418 1391 1356 1324 1245 1190 1190 1289 1332 1370 1397 1453 1484 1523 1633 1683 1728 1770 1841 1872 1895 1921 2007 2051 2099 2201 2242 2299 2349 2322 2286 2242 2179 2152 2134 2100 2027 2013 2003 1977 1961 1958 1945 1928 
1946 1956 1965 1948 1867 1817 1782 1749 1703 1662 1658 1706 1753 1793 1835 1787 1754 1750 1766 1790 1801 1748 1720 1701 1663 1646 1628 1603 1548 1517 1481 1432 1411 1377 1343 1260 1200 1205 1297 1334 1367 1395 1443 1476 1522 1630 1683 1732 1762 1830 1855 1891 1955 1994 2038 2084 2180 2229 2291 2324 2313 2305 2302 2280 2267 2244 2187 2114 2094 2076 2027 1997 1954 1922 1909 
2076 2040 2035 1908 1852 1806 1770 1765 1755 1749 1716 1766 1813 1871 1829 1786 1763 1777 1789 1807 1807 1766 1742 1726 1690 1672 1648 1621 1564 1528 1491 1454 1434 1412 1376 1289 1216 1217 1294 1325 1361 1388 1435 1474 1517 1621 1672 1719 1743 1815 1842 1878 1944 1983 2021 2066 2193 2226 2277 2276 2269 2276 2288 2364 2389 2361 2248 2187 2161 2155 2073 2040 1986 1911 1875 
2109 2076 2026 1900 1850 1807 1781 1772 1763 1762 1747 1789 1836 1884 1845 1812 1790 1805 1821 1848 1829 1791 1771 1753 1720 1698 1666 1609 1579 1541 1504 1459 1441 1421 1353 1317 1259 1221 1281 1308 1333 1356 1422 1460 1501 1609 1664 1711 1733 1791 1830 1879 1964 1998 2036 2086 2209 2204 2203 2201 2208 2216 2226 2302 2392 2432 2330 2293 2297 2258 2169 2101 2033 1939 1887 
2179 2108 2040 1948 1911 1831 1797 1784 1776 1766 1762 1791 1843 1900 1866 1833 1813 1811 1835 1854 1882 1854 1827 1804 1760 1733 1697 1618 1591 1555 1519 1465 1439 1416 1357 1330 1288 1240 1274 1299 1327 1385 1413 1450 1501 1594 1637 1673 1743 1772 1819 1875 1991 2030 2074 2177 2207 2189 2189 2179 2181 2192 2202 2277 2347 2425 2393 2370 2329 2272 2171 2118 2063 1959 1936 
2184 2120 1996 1957 1932 1915 1898 1885 1869 1831 1814 1804 1838 1918 1888 1857 1840 1824 1839 1852 1907 1890 1856 1829 1767 1733 1701 1629 1591 1559 1521 1455 1424 1407 1349 1319 1287 1248 1270 1291 1321 1385 1416 1455 1508 1592 1623 1650 1751 1817 1875 1943 2036 2085 2127 2177 2196 2174 2175 2167 2173 2185 2217 2263 2339 2412 2361 2329 2297 2206 2175 2154 2132 2116 2099 
2149 2089 1997 1969 1960 1965 1968 1961 1947 1886 1848 1837 1869 1921 1945 1932 1866 1834 1845 1859 1921 1914 1880 1805 1761 1726 1697 1625 1570 1530 1460 1425 1396 1370 1322 1297 1267 1248 1255 1284 1314 1377 1411 1460 1520 1610 1644 1670 1771 1830 1888 1955 2057 2092 2116 2172 2178 2149 2140 2152 2170 2184 2206 2250 2324 2400 2353 2311 2278 2223 2210 2221 2224 2203 2181 
2103 2058 1995 1991 2008 2066 2028 2043 2040 1933 1881 1859 1888 1932 1961 1994 1923 1902 1897 1899 1922 1895 1858 1768 1750 1707 1668 1595 1540 1491 1426 1396 1372 1364 1349 1329 1299 1251 1251 1267 1290 1371 1425 1483 1578 1624 1656 1692 1785 1831 1882 1949 2050 2085 2115 2172 2167 2138 2133 2137 2157 2167 2187 2228 2305 2384 2433 2356 2303 2271 2272 2260 2228 2184 2162 
2112 2078 2051 2063 2096 2227 2243 2205 2119 1956 1902 1891 1911 1949 1985 2044 1992 1957 1945 1939 1931 1872 1828 1745 1695 1662 1624 1552 1511 1468 1392 1379 1381 1396 1385 1367 1345 1282 1257 1257 1279 1356 1410 1471 1567 1609 1652 1691 1785 1839 1904 1995 2041 2085 2121 2174 2157 2129 2123 2122 2147 2153 2186 2231 2296 2434 2406 2359 2343 2268 2237 2212 2189 2132 2132 
2141 2117 2094 2113 2158 2258 2219 2188 2151 2020 1972 1956 1996 2012 2012 2071 2038 2001 1986 1965 1934 1872 1810 1744 1701 1666 1582 1549 1516 1474 1396 1419 1451 1496 1435 1404 1365 1310 1284 1260 1266 1343 1391 1439 1551 1601 1656 1708 1807 1864 1910 1975 1999 2034 2059 2123 2122 2087 2113 2120 2138 2142 2180 2228 2297 2420 2366 2316 2291 2237 2214 2196 2144 2114 2088 
2187 2168 2163 2183 2252 2247 2197 2162 2139 2040 2003 1990 2033 2038 2025 1992 1930 1905 1891 1879 1859 1862 1804 1724 1682 1647 1558 1534 1502 1458 1422 1459 1497 1496 1450 1416 1393 1332 1304 1273 1278 1316 1359 1421 1553 1605 1657 1713 1810 1850 1883 1938 1958 1976 1995 2072 2086 2061 2071 2089 2101 2099 2155 2223 2304 2416 2341 2290 2267 2218 2195 2175 2125 2098 2069 
2309 2216 2172 2144 2146 2248 2196 2151 2118 2046 2030 2034 2051 2017 1976 1934 1883 1861 1849 1840 1821 1786 1746 1672 1616 1572 1485 1496 1462 1438 1466 1502 1551 1510 1472 1440 1416 1356 1324 1290 1284 1332 1385 1449 1603 1675 1677 1727 1761 1817 1849 1886 1907 1919 1979 2026 2045 2044 2054 2066 2075 2099 2143 2224 2303 2403 2336 2285 2250 2188 2165 2158 2111 2082 2053 
2308 2199 2149 2109 2092 2132 2151 2135 2017 1994 1978 2013 2022 1983 1941 1876 1863 1845 1830 1807 1787 1757 1714 1626 1573 1530 1458 1443 1452 1484 1555 1596 1634 1529 1494 1471 1439 1381 1347 1302 1298 1352 1404 1470 1627 1695 1697 1715 1756 1790 1812 1838 1849 1867 1940 2001 2028 2034 2055 2079 2092 2112 2152 2241 2319 2405 2371 2330 2218 2181 2148 2126 2085 2046 2015 
2314 2208 2150 2101 2070 2074 2092 2103 1989 1963 1954 1955 1956 1937 1916 1863 1845 1815 1815 1775 1755 1724 1640 1588 1538 1494 1451 1459 1484 1565 1601 1638 1643 1580 1551 1522 1455 1427 1393 1347 1315 1368 1419 1492 1650 1710 1716 1724 1756 1784 1809 1843 1854 1869 1947 1991 2024 2050 2130 2142 2155 2146 2180 2253 2322 2399 2368 2334 2220 2181 2137 2108 2077 2037 2002 
2328 2238 2162 2111 2071 2036 2046 2055 1984 1931 1929 1926 1927 1923 1909 1850 1827 1790 1766 1722 1705 1674 1574 1525 1513 1476 1465 1489 1523 1615 1654 1658 1630 1595 1573 1546 1476 1453 1418 1380 1330 1377 1434 1599 1659 1705 1741 1766 1774 1788 1845 1856 1869 1893 1979 2033 2062 2107 2213 2222 2251 2311 2300 2294 2305 2341 2324 2293 2208 2174 2118 2085 2057 2021 1989 
2324 2223 2154 2094 2009 1985 1986 1988 1974 1920 1897 1891 1896 1905 1895 1835 1802 1773 1754 1703 1681 1650 1552 1508 1493 1495 1550 1587 1626 1719 1692 1675 1647 1609 1592 1570 1503 1475 1446 1411 1343 1379 1435 1593 1659 1702 1738 1806 1841 1882 1939 1941 1892 1926 2046 2099 2128 2230 2297 2344 2378 2370 2321 2275 2273 2289 2288 2263 2175 2149 2128 2049 2027 1995 1978 
2295 2194 2142 2096 2011 1977 1960 1955 1885 1865 1857 1841 1833 1828 1819 1810 1776 1755 1705 1675 1655 1627 1538 1515 1517 1559 1590 1627 1677 1786 1756 1724 1702 1661 1641 1610 1542 1494 1469 1437 1354 1381 1437 1584 1653 1699 1737 1804 1843 1881 1966 2004 2053 2103 2184 2224 2270 2360 2356 2425 2420 2334 2296 2263 2243 2260 2266 2245 2164 2139 2132 2044 2015 1981 1950 
2261 2183 2139 2095 2009 1966 1934 1923 1860 1832 1832 1822 1811 1797 1778 1730 1708 1689 1625 1602 1593 1598 1545 1542 1546 1598 1627 1671 1728 1815 1769 1749 1694 1672 1657 1638 1563 1520 1490 1399 1359 1388 1439 1575 1647 1697 1777 1803 1834 1875 1955 1997 2044 2092 2188 2237 2278 2330 2361 2386 2397 2326 2288 2265 2210 2241 2249 2236 2147 2114 2113 2041 2006 1971 1934 
2148 2133 2114 2087 2007 1950 1908 1893 1842 1809 1808 1797 1788 1770 1747 1698 1679 1656 1603 1593 1592 1598 1611 1623 1637 1688 1733 1730 1779 1831 1788 1774 1729 1700 1681 1660 1579 1532 1495 1397 1366 1393 1442 1551 1624 1693 1754 1776 1802 1861 1933 1975 2015 2110 2159 2202 2235 2283 2311 2338 2374 2331 2289 2266 2212 2201 2196 2199 2156 2120 2096 2034 1996 1969 1931 
2118 2105 2103 2095 2030 1961 1906 1867 1839 1807 1786 1746 1761 1744 1695 1674 1655 1633 1610 1608 1610 1629 1646 1670 1692 1742 1788 1830 1868 1860 1826 1799 1749 1722 1698 1674 1590 1542 1499 1389 1365 1397 1452 1551 1621 1681 1740 1761 1786 1803 1841 1881 1923 2041 2084 2164 2189 2238 2265 2295 2354 2317 2277 2251 2218 2209 2195 2174 2154 2130 2105 2022 1977 1942 1879 
2102 2081 2082 2093 2073 2008 1955 1894 1853 1810 1777 1729 1716 1705 1672 1645 1623 1620 1633 1632 1635 1661 1685 1718 1746 1823 1856 1893 1909 1869 1833 1798 1732 1703 1679 1629 1589 1538 1496 1391 1368 1407 1468 1564 1625 1678 1738 1758 1783 1800 1819 1859 1891 2011 2054 2075 2093 2149 2183 2226 2302 2320 2261 2230 2203 2216 2196 2172 2143 2114 2100 2033 1977 1930 1861 
2156 2123 2055 2058 2071 2028 1987 1938 1885 1818 1771 1719 1694 1684 1665 1643 1623 1631 1675 1694 1720 1762 1793 1839 1803 1899 1922 1965 1922 1874 1825 1784 1709 1675 1655 1618 1583 1540 1491 1399 1382 1425 1523 1566 1613 1662 1741 1762 1787 1817 1821 1849 1889 2017 2061 2060 2082 2112 2149 2192 2281 2330 2324 2269 2225 2214 2200 2141 2133 2103 2079 2044 1994 1944 1849 
2168 2153 2093 2007 2005 2008 2015 1980 1908 1829 1739 1711 1683 1665 1654 1637 1634 1652 1711 1734 1760 1832 1874 1893 1916 2004 2061 2043 1930 1863 1804 1766 1697 1668 1647 1615 1590 1547 1497 1405 1387 1427 1517 1558 1596 1644 1736 1770 1804 1846 1849 1863 1896 2032 2065 2060 2063 2090 2126 2168 2248 2302 2352 2295 2265 2241 2212 2141 2112 2100 2066 2038 2014 1981 1859 
2177 2157 2116 1995 1983 1986 1991 1964 1914 1862 1757 1713 1681 1662 1673 1647 1662 1718 1755 1783 1807 1890 1954 1978 1998 2033 2073 2030 1922 1865 1807 1725 1713 1698 1668 1672 1629 1566 1511 1424 1399 1429 1505 1543 1579 1630 1726 1768 1802 1841 1847 1874 1925 2051 2075 2073 2100 2112 2135 2169 2226 2270 2312 2350 2340 2299 2242 2149 2114 2104 2068 2041 2014 1962 1884 
2219 2180 2143 2016 1971 1960 1970 1948 1929 1902 1784 1735 1704 1693 1714 1733 1758 1840 1895 1906 1924 1930 1988 2039 2049 2075 2051 2012 1911 1866 1823 1756 1746 1726 1702 1717 1670 1606 1515 1468 1439 1430 1498 1531 1570 1665 1717 1758 1794 1840 1851 1888 1943 2057 2091 2105 2126 2126 2142 2148 2233 2244 2261 2304 2333 2367 2285 2167 2140 2123 2073 2048 2018 1971 1895 
2211 2217 2203 2087 2005 1967 1950 1928 1924 1910 1817 1766 1730 1729 1762 1789 1824 1909 1962 1995 1991 2081 2125 2137 2091 2060 2044 2002 1907 1864 1830 1806 1791 1756 1740 1731 1691 1620 1534 1488 1453 1438 1482 1506 1537 1628 1689 1738 1778 1847 1863 1900 2008 2053 2088 2113 2132 2135 2131 2170 2226 2262 2261 2269 2284 2296 2215 2201 2226 2236 2161 2060 2022 1979 1904 
2169 2192 2192 2118 2060 2006 1935 1923 1914 1915 1873 1836 1766 1788 1817 1842 1871 1963 2013 2068 2094 2139 2124 2109 2075 2039 2020 1978 1893 1854 1817 1835 1835 1819 1764 1754 1713 1644 1549 1500 1463 1445 1468 1495 1531 1621 1675 1729 1779 1865 1899 1925 2000 2031 2082 2127 2130 2130 2129 2173 2230 2262 2247 2235 2246 2261 2230 2237 2233 2200 2138 2104 2067 1967 1916 
2126 2161 2172 2137 2108 2050 1958 1932 1916 1907 1886 1861 1833 1861 1886 1928 1987 2092 2068 2122 2161 2129 2087 2061 2045 2017 1991 1923 1880 1843 1840 1898 1908 1885 1836 1784 1731 1669 1568 1519 1472 1448 1468 1485 1522 1606 1662 1715 1774 1869 1916 1962 2042 2071 2118 2163 2189 2173 2166 2238 2294 2255 2228 2209 2221 2234 2254 2250 2201 2156 2087 2057 2027 1973 1926 
2001 2043 2085 2121 2135 2107 2016 1965 1932 1906 1879 1870 1851 1891 1910 1961 2026 2132 2172 2191 2085 2055 2043 2031 2007 1989 1972 1923 1888 1869 1886 1955 1978 1942 1852 1789 1723 1664 1572 1531 1505 1475 1486 1493 1510 1591 1656 1713 1812 1857 1907 1962 2084 2133 2171 2271 2231 2191 2184 2238 2273 2248 2208 2185 2192 2201 2232 2235 2180 2125 2048 2025 1998 1976 1943 
1949 1983 2037 2060 2088 2118 2119 2081 2037 1898 1878 1867 1861 1898 1920 1976 2072 2112 2150 2179 2086 2071 2059 2044 2008 1994 1982 1965 1969 1989 2014 2002 2019 1985 1866 1792 1721 1661 1576 1538 1513 1491 1501 1503 1513 1592 1639 1705 1781 1812 1851 1899 2025 2114 2173 2286 2262 2212 2218 2247 2259 2244 2195 2195 2205 2218 2201 2195 2170 2058 2019 1986 1965 1964 1939 
1911 1933 1990 2023 2055 2091 2132 2127 2085 1971 1931 1917 1895 1913 1931 1974 2056 2087 2130 2172 2125 2105 2089 2071 2060 2042 2023 2008 2027 2051 2008 2002 1977 1950 1877 1815 1746 1625 1586 1548 1527 1513 1518 1514 1518 1585 1631 1699 1767 1803 1840 1879 1991 2055 2116 2225 2263 2289 2318 2251 2242 2227 2202 2191 2195 2209 2170 2149 2135 2051 2017 1984 1959 1943 1920 
1866 1889 1952 1988 2024 2063 2123 2140 2117 1995 1950 1930 1911 1933 1949 1976 2060 2105 2152 2199 2220 2145 2135 2128 2130 2121 2097 2079 2103 2081 1994 1979 1949 1919 1882 1828 1774 1679 1642 1603 1579 1576 1559 1525 1545 1586 1632 1685 1773 1822 1848 1917 1970 2029 2081 2183 2217 2257 2307 2248 2214 2193 2207 2200 2179 2184 2144 2106 2095 2063 2024 1993 1959 1921 1902 
1777 1807 1889 1927 1969 2054 2112 2133 2132 2016 1968 1936 1930 1942 1956 1975 2052 2111 2171 2220 2294 2273 2266 2260 2213 2172 2139 2120 2140 2100 2001 1961 1921 1887 1868 1836 1791 1715 1677 1639 1634 1619 1590 1568 1589 1629 1668 1710 1778 1852 1867 1916 1968 2020 2059 2131 2184 2245 2320 2259 2214 2191 2206 2201 2156 2082 2055 2027 2005 1984 1977 1971 1953 1905 1886 
1731 1770 1851 1894 1937 2014 2054 2090 2121 2057 1992 1948 1936 1946 1960 1980 2055 2115 2175 2278 2290 2246 2231 2239 2199 2160 2118 2110 2106 2105 2023 1965 1920 1883 1839 1828 1793 1737 1703 1679 1689 1655 1623 1598 1612 1657 1708 1745 1784 1855 1907 1959 1989 2030 2062 2101 2174 2253 2340 2274 2221 2201 2201 2182 2127 2070 2044 2022 2001 1987 1972 1970 1944 1928 1906 
1682 1716 1806 1856 1897 1960 1998 2051 2090 2070 2014 1970 1947 1946 1962 1986 2082 2116 2180 2259 2272 2221 2185 2185 2159 2133 2106 2089 2079 2077 2061 2011 1968 1875 1850 1840 1793 1734 1737 1756 1724 1696 1665 1636 1650 1700 1736 1757 1783 1843 1908 2012 2037 2095 2101 2110 2152 2222 2349 2291 2254 2244 2197 2166 2121 2074 2050 2027 2014 2013 2001 1998 1987 1974 1948 
1583 1654 1701 1807 1850 1907 1948 1999 2036 2076 2039 1991 1957 1956 1972 2004 2087 2100 2121 2184 2219 2199 2171 2136 2090 2091 2068 2047 2034 2032 2024 2006 1994 1921 1889 1864 1837 1780 1792 1808 1831 1805 1776 1727 1701 1727 1723 1745 1768 1821 1874 2010 2072 2135 2115 2128 2163 2250 2353 2298 2265 2243 2214 2164 2131 2094 2074 2057 2065 2034 2035 2040 2053 2040 2017 
1539 1610 1647 1694 1741 1820 1858 1898 1996 2066 2058 2004 1966 1965 1979 2057 2094 2106 2113 2162 2196 2197 2142 2105 2062 2041 2028 2011 2003 1996 1966 1969 1960 1923 1899 1868 1837 1823 1829 1847 1862 1824 1786 1745 1706 1722 1710 1736 1757 1787 1836 1959 2013 2102 2166 2164 2197 2284 2351 2315 2285 2237 2211 2174 2142 2109 2097 2089 2130 2195 2213 2210 2225 2209 2177 
1514 1578 1612 1655 1704 1780 1821 1862 1958 2006 2040 2028 1984 1999 2022 2083 2107 2117 2118 2170 2186 2185 2122 2069 2033 2024 2012 1992 1994 1967 1955 1944 1929 1940 1947 1920 1859 1829 1841 1861 1862 1826 1788 1754 1706 1708 1704 1729 1759 1777 1821 1926 1983 2037 2154 2218 2272 2339 2384 2351 2331 2232 2208 2178 2148 2132 2132 2138 2219 2314 2319 2297 2226 2199 2164 
1509 1558 1581 1621 1669 1744 1783 1826 1921 1977 2020 2037 2008 2028 2051 2116 2133 2148 2164 2187 2186 2170 2112 2066 2027 2016 1998 1983 1983 1961 1949 1933 1925 1925 1920 1901 1866 1865 1911 1930 1845 1797 1762 1707 1705 1704 1704 1726 1765 1779 1848 1900 1962 2031 2159 2223 2288 2385 2364 2358 2338 2279 2255 2232 2214 2231 2184 2228 2323 2364 2363 2310 2231 2196 2153 
1520 1534 1549 1568 1654 1683 1746 1792 1902 1967 2022 2038 2041 2068 2083 2149 2162 2174 2182 2194 2205 2177 2128 2070 2035 2008 1975 1962 1967 1946 1935 1925 1920 1902 1895 1886 1857 1867 1892 1910 1852 1804 1768 1712 1703 1703 1703 1738 1767 1769 1834 1882 1948 2022 2158 2227 2301 2356 2325 2305 2291 2256 2240 2226 2257 2293 2313 2317 2320 2335 2339 2297 2240 2209 2163 
1527 1548 1560 1564 1623 1654 1686 1728 1841 1905 1969 2006 2045 2081 2116 2212 2228 2228 2208 2214 2231 2193 2124 2084 2042 1978 1960 1942 1935 1914 1910 1898 1879 1874 1878 1873 1862 1871 1903 1934 1878 1832 1796 1729 1707 1704 1704 1752 1767 1774 1839 1881 1932 1994 2130 2212 2312 2318 2278 2254 2236 2215 2199 2191 2226 2244 2249 2252 2256 2259 2276 2294 2279 2249 2208 
1560 1573 1579 1570 1598 1628 1662 1705 1817 1887 1958 1970 1972 1987 2030 2170 2214 2252 2280 2241 2229 2189 2118 2094 2053 1958 1942 1932 1927 1912 1908 1897 1876 1874 1880 1891 1924 1946 1980 2055 1983 1867 1834 1742 1716 1706 1730 1756 1762 1781 1852 1884 1925 1974 2116 2194 2258 2270 2235 2209 2180 2148 2148 2164 2201 2205 2204 2208 2204 2199 2200 2233 2246 2246 2201 
1656 1640 1623 1585 1586 1609 1646 1746 1811 1880 1945 1968 1968 1971 2008 2165 2191 2204 2234 2265 2266 2208 2135 2114 2074 1954 1937 1932 1932 1916 1906 1895 1891 1894 1909 1920 1971 2010 2045 2147 2066 2021 1970 1812 1780 1757 1745 1740 1751 1780 1854 1871 1904 2012 2093 2170 2229 2256 2221 2192 2145 2142 2142 2143 2168 2169 2157 2142 2139 2158 2148 2167 2183 2197 2186 
1712 1686 1654 1621 1603 1617 1649 1748 1816 1878 1934 1973 1976 1976 2052 2140 2165 2181 2206 2248 2300 2195 2159 2121 2075 1999 1973 1958 1942 1938 1943 1904 1934 1945 1963 1976 2019 2047 2086 2229 2170 2125 2054 1867 1830 1799 1782 1766 1745 1746 1811 1843 1881 2002 2072 2136 2189 2218 2195 2174 2146 2142 2142 2143 2157 2154 2144 2122 2123 2103 2083 2061 2068 2090 2118 
1749 1719 1674 1640 1639 1666 1685 1771 1836 1928 2016 2018 2009 2003 2110 2148 2160 2176 2188 2233 2299 2222 2183 2138 2091 2023 2002 1975 1948 1968 1994 2037 2108 2176 2221 2248 2194 2137 2120 2270 2236 2168 1995 1905 1883 1841 1783 1761 1744 1743 1792 1827 1870 1970 2018 2066 2103 2133 2147 2150 2158 2144 2144 2159 2146 2133 2123 2128 2113 2083 2057 2026 2021 2034 2074 
1769 1732 1692 1693 1710 1730 1730 1797 1855 1941 2041 2044 2026 2027 2141 2158 2156 2161 2190 2234 2296 2312 2211 2164 2118 2055 2037 2004 1992 2021 2058 2084 2159 2208 2246 2320 2238 2185 2189 2309 2260 2188 2049 1989 1913 1856 1776 1756 1746 1753 1780 1818 1864 1949 1996 2043 2093 2116 2143 2184 2199 2185 2176 2172 2136 2121 2117 2128 2100 2067 2033 2000 1987 1988 2013 
