ncols 357
nrows 53
xllcorner 457900
yllcorner 5718300
cellsize 100
NODATA_value  -9999
2162 2240 2276 2261 2258 2284 2306 2331 2376 2387 2341 2281 2239 2202 2177 2206 2256 2281 2282 2270 2277 2286 2268 2235 2199 2182 2167 2143 2123 2114 2108 2093 2059 2053 2100 2152 2177 2170 2153 2166 2213 2255 2290 2294 2252 2201 2173 2184 2202 2215 2195 2142 2123 2142 2172 2210 2198 2138 2067 2020 2010 1994 1962 1933 1909 1891 1872 1851 1834 1817 1802 1792 1778 1768 1761 1750 1740 1732 1727 1721 1716 1707 1696 1685 1673 1664 1655 1647 1653 1679 1705 1725 1735 1741 1752 1759 1756 1752 1752 1745 1738 1743 1714 1642 1581 1538 1516 1513 1514 1513 1511 1507 1532 1584 1632 1660 1693 1758 1776 1724 1701 1733 1783 1839 1901 1961 2026 2092 2120 2089 2001 1961 1979 2035 2112 2182 2222 2170 2101 2041 1965 1920 1889 1854 1826 1807 1794 1781 1767 1756 1746 1733 1723 1720 1721 1717 1708 1701 1700 1695 1685 1678 1675 1670 1664 1659 1657 1651 1648 1642 1614 1595 1604 1615 1624 1643 1663 1684 1699 1706 1723 1737 1741 1745 1754 1768 1789 1805 1767 1709 1678 1666 1645 1624 1626 1631 1618 1607 1616 1620 1620 1626 1629 1623 1615 1605 1601 1609 1619 1611 1591 1574 1560 1544 1531 1520 1516 1517 1515 1512 1512 1509 1507 1520 1542 1551 1561 1590 1608 1609 1624 1655 1686 1654 1623 1596 1581 1583 1583 1593 1603 1620 1650 1634 1627 1652 1690 1673 1658 1679 1678 1667 1680 1666 1636 1642 1673 1704 1706 1680 1680 1679 1633 1584 1554 1549 1582 1586 1594 1629 1638 1655 1639 1589 1556 1532 1522 1528 1553 1570 1573 1604 1648 1663 1662 1663 1659 1659 1665 1683 1704 1704 1696 1695 1694 1696 1696 1686 1675 1667 1658 1646 1631 1605 1597 1618 1632 1617 1620 1642 1662 1679 1688 1674 1660 1649 1628 1622 1619 1622 1626 1625 1635 1646 1650 1646 1636 1629 1629 1632 1638 1637 1632 1626 1620 1617 1614 1611 1606 1601 1596 1591 1585 1571 1546 1531 1533 1541 1543 1526 1502 1481 1472 1462 1446 1435 1432
2179 2233 2301 2326 2319 2331 2350 2364 2381 2372 2323 2258 2203 2166 2173 2217 2253 2262 2245 2225 2240 2264 2268 2248 2220 2193 2180 2177 2171 2162 2138 2113 2073 2040 2070 2120 2142 2123 2122 2162 2211 2253 2300 2329 2300 2245 2221 2236 2254 2253 2227 2173 2165 2191 2199 2187 2159 2134 2066 2015 2007 1999 1975 1949 1931 1917 1904 1884 1856 1832 1814 1798 1785 1773 1764 1754 1744 1736 1728 1722 1718 1712 1703 1689 1681 1677 1673 1667 1653 1653 1677 1694 1702 1710 1717 1719 1719 1721 1724 1712 1700 1710 1712 1660 1597 1552 1519 1511 1513 1513 1511 1510 1525 1551 1593 1632 1674 1731 1752 1706 1689 1727 1775 1824 1872 1931 1999 2057 2075 2034 1967 1929 1946 2022 2120 2151 2191 2201 2128 2064 2004 1947 1916 1882 1846 1820 1801 1786 1773 1767 1765 1745 1724 1720 1723 1722 1713 1701 1698 1695 1684 1676 1673 1668 1663 1661 1659 1655 1651 1631 1611 1593 1596 1612 1632 1653 1667 1682 1690 1695 1706 1716 1724 1735 1743 1753 1782 1781 1741 1701 1675 1662 1641 1620 1627 1643 1640 1618 1608 1615 1622 1626 1628 1629 1614 1601 1610 1618 1618 1613 1604 1594 1587 1564 1537 1524 1516 1513 1510 1509 1510 1506 1507 1520 1544 1567 1576 1588 1593 1596 1602 1625 1665 1643 1603 1584 1575 1577 1590 1615 1633 1617 1621 1607 1602 1626 1661 1675 1642 1639 1644 1635 1646 1662 1627 1627 1671 1693 1682 1660 1665 1680 1654 1607 1584 1557 1543 1558 1595 1602 1592 1624 1615 1569 1532 1515 1520 1552 1585 1605 1599 1608 1644 1661 1668 1674 1677 1679 1684 1702 1706 1682 1660 1662 1662 1668 1679 1673 1658 1650 1646 1639 1629 1607 1587 1603 1610 1609 1619 1632 1650 1672 1682 1660 1636 1625 1608 1595 1585 1589 1595 1599 1608 1622 1645 1652 1648 1645 1647 1649 1649 1642 1630 1618 1609 1605 1602 1601 1598 1589 1579 1582 1589 1581 1561 1553 1558 1562 1557 1537 1519 1504 1489 1466 1451 1448 1447
2226 2268 2333 2361 2345 2331 2329 2336 2349 2343 2306 2252 2193 2145 2160 2205 2233 2235 2213 2186 2203 2231 2251 2266 2257 2237 2229 2227 2217 2195 2154 2120 2088 2040 2037 2079 2082 2083 2127 2180 2219 2251 2276 2307 2339 2306 2277 2296 2310 2299 2251 2213 2220 2223 2196 2149 2108 2080 2038 2018 2007 1995 1980 1956 1936 1924 1901 1880 1863 1837 1819 1805 1788 1774 1765 1756 1747 1738 1729 1721 1717 1715 1709 1699 1693 1687 1679 1681 1676 1647 1637 1659 1677 1684 1683 1681 1684 1689 1693 1685 1677 1691 1694 1662 1611 1567 1525 1511 1513 1512 1512 1510 1521 1539 1561 1595 1657 1710 1726 1679 1669 1710 1764 1814 1852 1895 1957 2016 2045 2000 1917 1889 1920 1984 2038 2077 2138 2201 2168 2095 2026 1958 1909 1880 1849 1823 1812 1796 1782 1774 1770 1752 1732 1723 1720 1719 1714 1702 1696 1693 1684 1677 1674 1672 1670 1669 1666 1660 1655 1650 1626 1591 1588 1619 1633 1634 1644 1664 1675 1680 1690 1697 1709 1726 1736 1741 1768 1761 1714 1680 1665 1649 1630 1614 1616 1636 1657 1653 1618 1599 1616 1632 1633 1632 1618 1603 1612 1616 1609 1610 1612 1608 1601 1571 1536 1523 1511 1509 1508 1506 1507 1503 1506 1519 1544 1569 1584 1579 1577 1586 1591 1604 1624 1617 1587 1574 1591 1605 1610 1637 1659 1648 1610 1583 1581 1607 1634 1667 1640 1624 1626 1614 1619 1653 1616 1617 1669 1676 1654 1649 1665 1684 1670 1636 1614 1586 1547 1535 1551 1554 1557 1584 1579 1543 1515 1520 1552 1574 1603 1633 1643 1636 1649 1666 1678 1690 1699 1707 1710 1711 1697 1669 1640 1630 1630 1641 1656 1662 1655 1640 1628 1623 1620 1608 1586 1585 1590 1604 1620 1633 1650 1670 1675 1654 1628 1611 1599 1585 1574 1565 1566 1574 1577 1600 1633 1643 1645 1652 1653 1653 1651 1639 1619 1597 1584 1579 1579 1582 1585 1575 1559 1565 1580 1582 1578 1574 1571 1568 1561 1552 1536 1517 1492 1474 1468 1466 1462
2277 2330 2362 2359 2333 2296 2281 2285 2302 2311 2290 2246 2189 2134 2141 2184 2210 2210 2190 2158 2164 2185 2214 2261 2277 2267 2262 2261 2249 2212 2162 2125 2093 2059 2023 2021 2049 2096 2143 2180 2204 2216 2233 2273 2329 2365 2360 2366 2368 2329 2285 2271 2261 2223 2173 2114 2067 2038 2025 2020 2005 1987 1968 1945 1927 1912 1895 1872 1860 1851 1833 1814 1796 1782 1771 1760 1750 1741 1732 1727 1723 1720 1718 1708 1700 1697 1689 1678 1677 1668 1630 1628 1653 1662 1659 1656 1657 1659 1664 1664 1659 1667 1676 1667 1623 1578 1534 1512 1510 1511 1511 1509 1515 1532 1549 1574 1629 1688 1704 1654 1658 1704 1749 1795 1836 1872 1925 1979 2011 1978 1901 1860 1880 1933 1980 2054 2129 2205 2182 2118 2060 1988 1928 1887 1852 1832 1818 1802 1788 1774 1762 1749 1737 1728 1720 1713 1708 1701 1695 1692 1686 1679 1674 1677 1683 1682 1676 1667 1653 1644 1627 1604 1583 1607 1626 1626 1631 1654 1667 1665 1675 1691 1701 1717 1725 1727 1749 1729 1682 1662 1653 1635 1621 1612 1607 1610 1631 1648 1642 1606 1597 1631 1649 1638 1618 1600 1611 1621 1607 1593 1595 1591 1572 1550 1531 1520 1508 1507 1506 1505 1505 1503 1499 1517 1550 1567 1571 1565 1561 1568 1579 1589 1603 1595 1572 1584 1631 1668 1673 1673 1675 1659 1641 1620 1580 1590 1599 1633 1644 1599 1599 1602 1591 1623 1615 1606 1629 1632 1625 1646 1671 1682 1685 1676 1658 1629 1595 1560 1537 1526 1522 1533 1536 1517 1510 1535 1574 1608 1629 1659 1676 1671 1669 1675 1680 1694 1713 1722 1722 1706 1680 1654 1631 1611 1608 1619 1628 1634 1640 1637 1625 1609 1601 1604 1590 1572 1588 1608 1626 1643 1659 1674 1672 1655 1637 1621 1610 1601 1589 1574 1554 1551 1559 1581 1614 1617 1629 1639 1632 1631 1639 1633 1618 1602 1587 1568 1556 1556 1559 1559 1548 1552 1565 1570 1576 1576 1566 1556 1552 1551 1541 1523 1503 1491 1487 1484 1477
2292 2339 2358 2350 2317 2264 2228 2234 2257 2272 2264 2235 2185 2133 2126 2157 2182 2181 2166 2135 2127 2147 2189 2233 2246 2246 2246 2254 2253 2223 2173 2135 2099 2066 2019 2021 2071 2113 2140 2153 2154 2159 2197 2250 2307 2378 2421 2437 2430 2380 2345 2309 2263 2210 2143 2095 2071 2052 2036 2023 2004 1982 1969 1961 1952 1936 1910 1894 1900 1877 1839 1821 1805 1788 1777 1766 1754 1744 1737 1735 1731 1727 1724 1716 1707 1704 1698 1684 1670 1676 1657 1622 1620 1636 1644 1645 1642 1641 1639 1642 1643 1647 1658 1657 1631 1584 1541 1517 1512 1512 1513 1512 1507 1529 1545 1559 1602 1665 1683 1641 1652 1695 1728 1769 1816 1853 1895 1945 1973 1956 1893 1842 1852 1887 1948 2030 2093 2150 2195 2144 2077 2018 1957 1919 1886 1848 1827 1814 1795 1775 1760 1750 1738 1728 1720 1711 1707 1701 1695 1694 1689 1682 1676 1677 1690 1691 1682 1671 1657 1645 1629 1618 1601 1583 1614 1627 1623 1635 1649 1662 1674 1691 1702 1705 1707 1715 1743 1733 1693 1667 1657 1637 1623 1615 1603 1596 1598 1607 1616 1600 1584 1609 1644 1644 1618 1589 1600 1622 1616 1593 1582 1572 1555 1537 1524 1516 1510 1506 1504 1503 1502 1500 1499 1526 1557 1563 1559 1554 1571 1566 1563 1575 1589 1582 1580 1606 1638 1685 1725 1730 1702 1671 1652 1633 1597 1574 1566 1588 1606 1592 1574 1581 1573 1590 1612 1591 1593 1609 1636 1657 1662 1668 1688 1696 1670 1634 1611 1596 1588 1567 1540 1525 1512 1504 1517 1545 1568 1597 1641 1688 1705 1694 1681 1674 1672 1684 1704 1718 1716 1696 1666 1642 1625 1610 1594 1593 1600 1607 1620 1626 1624 1612 1595 1585 1577 1570 1592 1619 1635 1649 1665 1682 1678 1662 1646 1633 1622 1611 1595 1579 1564 1540 1542 1569 1594 1595 1618 1622 1599 1605 1627 1633 1622 1608 1593 1577 1562 1553 1545 1540 1536 1539 1548 1554 1564 1566 1554 1542 1540 1543 1545 1537 1522 1512 1507 1506 1492
2270 2320 2346 2337 2305 2254 2203 2187 2211 2227 2227 2215 2186 2139 2113 2124 2143 2141 2131 2112 2108 2137 2169 2192 2191 2192 2196 2212 2234 2229 2187 2149 2106 2060 2017 2017 2058 2093 2095 2083 2107 2140 2178 2232 2295 2370 2422 2443 2451 2439 2383 2319 2258 2197 2148 2129 2114 2084 2049 2028 2013 2003 1996 1989 1973 1944 1922 1930 1939 1910 1857 1832 1817 1798 1783 1774 1763 1751 1743 1740 1734 1729 1724 1721 1714 1707 1701 1692 1676 1665 1658 1645 1623 1617 1622 1622 1632 1634 1629 1626 1627 1628 1635 1649 1637 1591 1545 1522 1515 1513 1513 1513 1511 1511 1529 1547 1579 1635 1656 1632 1650 1686 1718 1754 1793 1829 1870 1922 1922 1907 1876 1826 1842 1888 1939 1994 2058 2115 2195 2187 2122 2051 1978 1938 1895 1866 1840 1819 1797 1776 1761 1751 1737 1726 1717 1710 1705 1700 1699 1698 1693 1686 1679 1676 1687 1693 1685 1674 1658 1645 1638 1626 1613 1594 1611 1623 1622 1626 1641 1673 1689 1697 1703 1698 1697 1710 1736 1767 1739 1698 1678 1654 1628 1628 1625 1610 1596 1589 1581 1580 1581 1589 1612 1625 1620 1589 1573 1605 1625 1607 1580 1564 1556 1545 1527 1515 1507 1504 1502 1501 1499 1497 1496 1533 1559 1557 1548 1553 1595 1583 1556 1557 1567 1573 1588 1604 1638 1666 1699 1728 1731 1695 1664 1638 1619 1595 1580 1563 1566 1567 1560 1554 1553 1564 1584 1596 1586 1601 1634 1649 1642 1648 1657 1662 1651 1631 1608 1594 1604 1619 1609 1581 1547 1509 1517 1542 1575 1608 1651 1718 1719 1691 1670 1662 1667 1682 1702 1718 1712 1687 1657 1635 1619 1606 1598 1583 1583 1589 1598 1609 1616 1614 1602 1581 1564 1568 1592 1616 1635 1653 1671 1684 1682 1670 1658 1645 1631 1619 1607 1589 1573 1548 1530 1555 1575 1579 1605 1604 1578 1586 1614 1632 1627 1614 1603 1591 1578 1564 1548 1535 1529 1528 1530 1540 1551 1553 1544 1533 1531 1538 1548 1551 1543 1534 1530 1524 1504
2261 2317 2333 2318 2289 2255 2216 2171 2163 2168 2173 2170 2158 2127 2106 2102 2104 2099 2097 2094 2098 2113 2124 2145 2146 2136 2142 2172 2211 2223 2195 2154 2120 2069 2016 2008 2030 2041 2058 2097 2137 2172 2213 2259 2311 2375 2410 2423 2437 2453 2397 2323 2267 2220 2203 2180 2138 2090 2054 2035 2025 2022 2010 1994 1971 1949 1943 1958 1953 1907 1867 1860 1852 1824 1798 1782 1771 1760 1750 1743 1737 1731 1726 1724 1719 1710 1705 1699 1686 1670 1663 1666 1656 1634 1615 1596 1608 1630 1631 1620 1614 1613 1615 1625 1630 1601 1553 1525 1519 1517 1515 1512 1512 1507 1520 1537 1559 1607 1625 1622 1649 1685 1715 1742 1776 1806 1851 1892 1866 1836 1821 1802 1824 1866 1916 1983 2037 2083 2164 2201 2144 2081 2018 1956 1906 1872 1842 1816 1795 1776 1760 1748 1736 1725 1716 1709 1702 1698 1700 1698 1691 1683 1675 1672 1679 1689 1686 1678 1664 1656 1645 1621 1588 1594 1595 1611 1623 1625 1638 1669 1707 1708 1695 1691 1696 1708 1732 1769 1767 1720 1683 1668 1649 1639 1657 1636 1608 1603 1596 1582 1575 1575 1581 1587 1603 1591 1568 1590 1618 1617 1591 1575 1585 1563 1529 1513 1506 1503 1500 1500 1497 1493 1502 1537 1554 1546 1537 1563 1590 1583 1559 1549 1555 1567 1577 1591 1631 1652 1666 1680 1724 1727 1692 1658 1630 1611 1611 1594 1562 1548 1543 1542 1541 1545 1547 1591 1581 1599 1637 1635 1621 1639 1640 1626 1624 1621 1607 1583 1586 1611 1630 1612 1569 1510 1507 1538 1579 1630 1673 1720 1694 1668 1654 1657 1671 1689 1706 1719 1706 1676 1648 1626 1607 1594 1586 1577 1571 1573 1579 1590 1599 1605 1602 1584 1559 1566 1589 1611 1631 1653 1673 1685 1684 1676 1667 1655 1639 1625 1613 1598 1578 1552 1524 1537 1547 1566 1589 1583 1561 1572 1602 1629 1632 1621 1612 1602 1587 1570 1554 1543 1535 1526 1520 1524 1533 1538 1534 1526 1528 1538 1549 1554 1551 1548 1547 1537 1518
2264 2313 2317 2286 2263 2234 2196 2158 2141 2134 2131 2126 2117 2105 2097 2092 2085 2082 2083 2086 2083 2081 2073 2093 2111 2096 2099 2143 2185 2203 2196 2163 2121 2061 2009 1994 2026 2056 2082 2110 2142 2180 2224 2273 2324 2379 2402 2409 2422 2437 2419 2353 2301 2274 2247 2198 2143 2099 2064 2052 2037 2029 2012 1992 1978 1970 1974 1974 1950 1907 1892 1918 1899 1856 1819 1794 1779 1768 1757 1750 1743 1735 1731 1727 1723 1715 1709 1703 1695 1682 1678 1680 1676 1657 1647 1627 1593 1601 1611 1617 1591 1593 1597 1597 1604 1590 1559 1530 1522 1518 1515 1512 1512 1510 1509 1525 1542 1584 1591 1606 1653 1692 1708 1727 1759 1787 1829 1850 1817 1773 1770 1799 1834 1866 1903 1946 2025 2092 2159 2206 2183 2119 2046 1970 1913 1881 1850 1817 1794 1775 1760 1747 1736 1729 1716 1709 1702 1697 1696 1696 1687 1678 1670 1669 1674 1684 1686 1682 1676 1670 1651 1624 1603 1571 1563 1588 1609 1616 1628 1656 1695 1706 1688 1685 1692 1707 1732 1774 1749 1698 1666 1660 1641 1638 1667 1663 1634 1621 1611 1592 1577 1570 1567 1565 1568 1577 1566 1562 1585 1610 1609 1601 1578 1551 1526 1511 1506 1502 1495 1496 1494 1493 1503 1533 1546 1532 1536 1568 1567 1559 1565 1548 1551 1555 1562 1577 1603 1624 1624 1656 1696 1737 1726 1681 1644 1622 1607 1596 1581 1577 1551 1536 1533 1536 1539 1559 1564 1606 1635 1630 1611 1629 1633 1614 1604 1600 1599 1587 1570 1578 1603 1587 1536 1501 1508 1539 1575 1612 1667 1697 1669 1651 1649 1662 1681 1698 1712 1718 1702 1668 1640 1629 1627 1606 1586 1574 1564 1560 1571 1581 1583 1586 1587 1574 1552 1566 1587 1608 1628 1649 1670 1680 1676 1669 1665 1657 1640 1622 1606 1594 1575 1550 1523 1525 1532 1557 1567 1552 1548 1567 1595 1627 1636 1629 1621 1611 1595 1577 1564 1557 1547 1532 1520 1514 1518 1526 1525 1518 1525 1535 1541 1542 1542 1545 1549 1542 1518
2319 2322 2304 2269 2238 2211 2185 2168 2151 2137 2123 2116 2114 2111 2114 2116 2110 2105 2092 2081 2075 2070 2052 2037 2056 2066 2078 2121 2160 2181 2191 2163 2121 2077 2018 1993 2028 2031 2044 2071 2099 2137 2199 2263 2324 2371 2390 2397 2406 2413 2426 2407 2356 2310 2258 2208 2168 2125 2094 2075 2053 2035 2017 2001 1994 1991 1987 1977 1944 1918 1927 1938 1927 1886 1838 1802 1787 1777 1766 1758 1750 1741 1735 1733 1727 1721 1714 1707 1703 1693 1690 1693 1692 1673 1664 1656 1627 1594 1577 1578 1576 1570 1563 1569 1569 1570 1559 1531 1522 1519 1517 1515 1512 1512 1506 1521 1535 1561 1568 1606 1650 1681 1697 1714 1741 1768 1806 1822 1778 1735 1763 1813 1861 1901 1951 1996 2054 2096 2094 2116 2155 2138 2072 1990 1919 1877 1844 1813 1793 1780 1762 1748 1736 1726 1716 1709 1704 1698 1694 1692 1685 1675 1670 1662 1663 1674 1684 1683 1678 1663 1642 1626 1612 1589 1564 1571 1593 1602 1612 1643 1678 1689 1676 1673 1686 1706 1736 1771 1731 1676 1645 1634 1624 1639 1667 1675 1645 1618 1599 1590 1578 1570 1564 1558 1553 1555 1555 1553 1591 1620 1617 1610 1595 1567 1535 1516 1511 1506 1496 1492 1492 1491 1503 1529 1538 1524 1530 1548 1548 1555 1578 1546 1540 1544 1549 1559 1577 1593 1624 1640 1678 1709 1738 1714 1666 1633 1609 1592 1599 1603 1576 1545 1526 1530 1535 1543 1564 1593 1629 1624 1600 1621 1631 1618 1600 1588 1582 1590 1578 1556 1571 1557 1513 1496 1519 1551 1600 1638 1665 1653 1632 1633 1655 1676 1696 1713 1723 1721 1701 1671 1650 1647 1639 1613 1596 1580 1566 1556 1557 1565 1567 1566 1563 1553 1548 1567 1587 1609 1627 1647 1666 1670 1659 1647 1647 1644 1632 1613 1595 1579 1562 1545 1525 1512 1517 1543 1538 1527 1546 1573 1600 1619 1620 1619 1624 1619 1609 1594 1583 1572 1558 1542 1527 1517 1509 1514 1514 1512 1520 1527 1530 1529 1529 1534 1540 1539 1515
2381 2365 2325 2292 2245 2237 2220 2167 2153 2137 2132 2138 2147 2147 2164 2169 2155 2134 2109 2084 2074 2061 2040 2021 2009 2022 2051 2091 2124 2154 2175 2157 2119 2061 2006 1985 1999 2031 2063 2100 2135 2175 2223 2275 2323 2355 2368 2373 2382 2389 2404 2426 2399 2335 2280 2243 2199 2144 2121 2102 2074 2040 2024 2019 2020 2006 1984 1966 1949 1951 1962 1955 1939 1917 1870 1825 1808 1790 1775 1768 1757 1749 1742 1738 1737 1728 1721 1714 1710 1707 1705 1703 1700 1693 1685 1676 1657 1640 1620 1618 1618 1608 1602 1601 1591 1574 1561 1544 1524 1518 1515 1513 1511 1511 1508 1522 1532 1543 1556 1591 1615 1651 1676 1697 1726 1754 1782 1766 1724 1736 1771 1804 1843 1894 1967 2029 2052 2035 2016 2049 2078 2106 2089 2015 1926 1885 1862 1833 1798 1775 1760 1748 1738 1723 1716 1709 1703 1695 1692 1691 1684 1672 1672 1664 1664 1655 1675 1685 1676 1657 1637 1623 1612 1598 1571 1561 1582 1590 1597 1622 1658 1665 1657 1671 1692 1714 1732 1758 1718 1665 1632 1616 1616 1635 1662 1676 1651 1619 1597 1585 1576 1569 1563 1558 1556 1552 1552 1552 1586 1593 1587 1610 1598 1570 1548 1528 1517 1510 1508 1491 1489 1488 1499 1525 1532 1521 1522 1529 1546 1578 1590 1550 1532 1534 1538 1546 1557 1575 1624 1633 1648 1681 1709 1733 1696 1651 1621 1601 1607 1609 1583 1563 1543 1525 1535 1549 1548 1565 1597 1586 1586 1610 1623 1609 1597 1585 1570 1574 1583 1554 1544 1533 1499 1496 1531 1576 1626 1644 1618 1604 1615 1645 1681 1703 1720 1733 1737 1728 1706 1681 1667 1661 1647 1619 1598 1580 1568 1557 1549 1544 1547 1553 1546 1540 1548 1565 1588 1607 1626 1646 1660 1661 1646 1626 1623 1624 1622 1612 1596 1576 1554 1539 1526 1506 1507 1514 1511 1524 1554 1585 1602 1601 1586 1591 1611 1623 1621 1612 1600 1586 1569 1554 1538 1526 1513 1505 1503 1507 1513 1517 1517 1518 1523 1532 1539 1545 1529
2414 2415 2367 2321 2292 2245 2212 2192 2170 2152 2161 2179 2197 2190 2190 2173 2149 2120 2097 2072 2069 2063 2049 2050 2012 1998 2023 2056 2091 2126 2148 2143 2110 2068 2014 1977 1995 2019 2045 2074 2117 2186 2242 2286 2315 2332 2338 2342 2355 2366 2381 2405 2415 2369 2311 2270 2218 2179 2148 2132 2080 2046 2044 2044 2032 2008 1990 1980 1979 1987 1980 1968 1949 1932 1905 1871 1835 1804 1785 1774 1767 1758 1750 1744 1744 1738 1727 1721 1717 1716 1716 1711 1707 1703 1695 1688 1676 1655 1650 1646 1639 1634 1629 1621 1611 1599 1581 1554 1530 1520 1515 1512 1511 1510 1510 1517 1529 1537 1542 1554 1576 1616 1648 1676 1706 1732 1739 1689 1697 1758 1829 1859 1877 1902 1958 2032 2003 1967 1956 2001 2017 2029 2076 2031 1942 1861 1838 1830 1804 1777 1757 1744 1736 1731 1717 1707 1697 1689 1689 1689 1680 1673 1679 1682 1678 1652 1657 1659 1665 1659 1638 1624 1610 1599 1596 1594 1558 1561 1585 1598 1621 1629 1664 1699 1689 1697 1718 1745 1719 1662 1629 1610 1610 1623 1646 1666 1661 1637 1612 1594 1582 1574 1566 1561 1557 1552 1550 1548 1567 1565 1568 1588 1596 1580 1565 1540 1520 1509 1507 1488 1487 1487 1495 1520 1526 1517 1518 1529 1549 1580 1604 1563 1527 1524 1527 1537 1546 1561 1579 1617 1634 1653 1675 1710 1721 1680 1642 1620 1603 1591 1582 1559 1537 1520 1524 1547 1537 1542 1554 1563 1584 1611 1632 1612 1589 1570 1561 1554 1563 1569 1528 1511 1487 1502 1547 1596 1625 1600 1580 1605 1640 1675 1710 1737 1758 1768 1760 1740 1716 1693 1678 1663 1640 1614 1598 1581 1570 1564 1561 1553 1543 1542 1543 1536 1548 1567 1592 1609 1628 1647 1659 1656 1641 1615 1600 1605 1614 1614 1600 1583 1560 1544 1532 1510 1499 1497 1504 1527 1560 1587 1590 1578 1559 1571 1595 1613 1624 1620 1604 1584 1566 1553 1542 1531 1520 1508 1500 1499 1504 1505 1507 1517 1528 1540 1550 1553 1540
2447 2463 2415 2352 2289 2265 2245 2216 2184 2184 2203 2228 2232 2204 2168 2130 2099 2088 2084 2078 2090 2094 2062 2027 2007 1992 2002 2037 2073 2094 2113 2123 2099 2061 2006 1970 2002 2027 2061 2099 2144 2194 2248 2286 2299 2305 2310 2318 2333 2346 2364 2380 2401 2399 2344 2297 2258 2218 2180 2137 2081 2070 2085 2086 2047 2016 2012 2010 2003 1993 1986 1976 1962 1944 1929 1904 1858 1818 1798 1785 1774 1764 1758 1749 1750 1750 1739 1729 1723 1721 1718 1715 1710 1707 1698 1692 1677 1665 1664 1659 1654 1654 1655 1649 1634 1618 1604 1572 1549 1527 1519 1514 1510 1509 1510 1514 1523 1528 1530 1531 1549 1587 1618 1651 1685 1682 1674 1685 1741 1791 1861 1922 1951 1973 2014 2000 1947 1903 1911 1945 1953 1974 2030 2032 1965 1857 1798 1800 1811 1783 1755 1739 1728 1721 1709 1699 1694 1693 1688 1683 1676 1675 1686 1693 1686 1673 1656 1636 1638 1640 1636 1625 1609 1597 1589 1593 1585 1555 1566 1587 1614 1642 1661 1683 1688 1682 1708 1727 1729 1683 1632 1614 1601 1607 1621 1639 1658 1654 1623 1599 1590 1583 1574 1567 1558 1550 1547 1544 1548 1552 1550 1554 1579 1582 1564 1535 1514 1505 1499 1489 1486 1484 1492 1511 1517 1511 1517 1547 1552 1564 1589 1576 1528 1517 1517 1522 1535 1544 1558 1581 1616 1624 1653 1666 1697 1710 1670 1634 1604 1579 1568 1553 1549 1529 1514 1531 1530 1537 1549 1561 1581 1620 1669 1632 1595 1569 1555 1545 1543 1567 1526 1498 1483 1516 1566 1610 1595 1565 1587 1626 1654 1680 1706 1732 1756 1788 1784 1749 1724 1698 1680 1659 1635 1616 1599 1579 1567 1561 1563 1563 1551 1536 1542 1535 1553 1574 1600 1618 1635 1653 1664 1656 1637 1608 1580 1583 1598 1610 1603 1587 1567 1548 1528 1509 1487 1483 1502 1527 1556 1571 1569 1559 1538 1556 1569 1597 1616 1615 1594 1568 1547 1535 1527 1522 1516 1510 1501 1494 1495 1500 1515 1527 1538 1549 1559 1560 1551
2472 2510 2443 2376 2315 2300 2275 2234 2216 2228 2254 2253 2209 2163 2119 2096 2087 2111 2124 2116 2104 2070 2035 2025 2014 1992 1986 2006 2031 2047 2075 2093 2083 2050 1999 1966 1982 2005 2033 2077 2143 2202 2246 2274 2279 2281 2288 2300 2316 2329 2347 2359 2371 2393 2388 2350 2289 2246 2189 2141 2113 2122 2138 2115 2062 2039 2037 2027 2011 2000 1990 1981 1971 1955 1940 1914 1868 1828 1806 1793 1779 1768 1762 1753 1754 1754 1748 1736 1728 1725 1718 1718 1713 1709 1704 1699 1687 1682 1680 1677 1676 1680 1689 1699 1688 1655 1620 1590 1567 1541 1531 1515 1509 1510 1510 1510 1516 1517 1511 1516 1530 1562 1588 1620 1647 1644 1674 1729 1773 1787 1816 1881 1935 1984 2021 1973 1900 1852 1848 1885 1902 1939 2004 2049 1959 1855 1804 1758 1777 1784 1754 1735 1719 1709 1708 1699 1692 1689 1681 1678 1675 1680 1691 1699 1692 1680 1672 1663 1633 1619 1621 1621 1606 1591 1584 1582 1594 1553 1563 1587 1614 1629 1640 1671 1711 1699 1695 1712 1719 1692 1634 1613 1598 1597 1603 1617 1642 1655 1633 1597 1589 1585 1575 1568 1560 1554 1549 1542 1541 1543 1539 1547 1569 1577 1555 1520 1508 1501 1495 1488 1487 1483 1487 1501 1506 1503 1516 1542 1541 1542 1556 1578 1539 1513 1511 1511 1523 1537 1546 1556 1585 1616 1636 1637 1667 1706 1696 1649 1607 1578 1559 1565 1571 1547 1520 1516 1523 1538 1568 1593 1600 1631 1682 1649 1606 1577 1555 1539 1538 1548 1520 1492 1488 1530 1576 1603 1564 1556 1583 1611 1639 1668 1697 1723 1743 1772 1779 1746 1723 1691 1665 1647 1629 1614 1594 1576 1564 1555 1551 1552 1547 1530 1531 1536 1558 1578 1601 1621 1639 1658 1664 1652 1631 1598 1568 1559 1580 1602 1604 1591 1574 1551 1525 1504 1489 1475 1494 1517 1545 1556 1547 1539 1522 1530 1559 1590 1613 1600 1568 1549 1534 1529 1522 1518 1511 1507 1500 1493 1492 1505 1520 1534 1546 1555 1559 1558 1551
2517 2538 2470 2406 2384 2352 2304 2266 2259 2268 2265 2225 2162 2118 2104 2111 2145 2169 2153 2115 2067 2053 2067 2059 2037 2006 1984 1975 1981 2000 2041 2055 2064 2035 1989 1960 1993 2026 2071 2105 2155 2211 2238 2258 2258 2260 2271 2286 2306 2315 2328 2335 2344 2365 2383 2387 2320 2266 2218 2183 2169 2180 2178 2125 2079 2083 2083 2054 2029 2009 1996 1985 1976 1965 1944 1912 1872 1833 1813 1802 1788 1774 1767 1759 1757 1752 1750 1740 1734 1727 1724 1723 1719 1716 1707 1702 1698 1694 1692 1694 1697 1706 1714 1727 1736 1709 1658 1620 1587 1558 1539 1522 1509 1510 1510 1510 1510 1509 1506 1508 1511 1534 1563 1589 1596 1634 1694 1721 1715 1726 1757 1801 1840 1889 1936 1986 1912 1847 1808 1835 1870 1925 1992 2064 1960 1876 1811 1751 1751 1773 1746 1732 1713 1698 1700 1696 1687 1679 1677 1676 1678 1684 1691 1695 1689 1680 1671 1659 1653 1646 1613 1611 1600 1587 1577 1575 1585 1545 1562 1583 1592 1616 1650 1687 1707 1716 1679 1696 1704 1661 1625 1605 1595 1593 1591 1604 1624 1645 1633 1587 1574 1571 1564 1563 1567 1561 1553 1544 1537 1534 1537 1544 1541 1537 1530 1512 1503 1498 1494 1488 1486 1485 1481 1498 1499 1496 1508 1522 1524 1522 1534 1561 1557 1513 1505 1506 1516 1529 1538 1546 1561 1603 1613 1606 1647 1668 1703 1664 1613 1580 1557 1543 1548 1567 1533 1511 1521 1537 1566 1596 1617 1635 1661 1656 1620 1577 1556 1537 1526 1524 1502 1483 1498 1533 1565 1573 1541 1553 1587 1614 1644 1660 1684 1714 1733 1758 1767 1735 1713 1676 1641 1628 1617 1603 1587 1575 1566 1556 1546 1540 1535 1525 1523 1532 1550 1569 1587 1612 1636 1656 1657 1647 1622 1588 1557 1538 1562 1588 1600 1593 1576 1552 1525 1502 1485 1468 1477 1500 1527 1539 1525 1516 1510 1534 1563 1589 1612 1603 1577 1560 1550 1543 1536 1527 1517 1510 1501 1492 1489 1503 1520 1535 1544 1550 1551 1550 1544
2570 2558 2497 2469 2443 2405 2355 2305 2267 2270 2236 2177 2126 2113 2148 2189 2215 2203 2151 2109 2068 2102 2115 2092 2070 2040 2011 1985 1968 1969 1979 2000 2022 2019 1979 1955 1992 2026 2069 2126 2174 2208 2225 2237 2230 2226 2247 2274 2296 2298 2305 2310 2321 2341 2354 2383 2365 2313 2256 2239 2233 2226 2188 2145 2122 2140 2131 2098 2061 2027 2001 1992 1983 1974 1953 1913 1877 1844 1820 1810 1799 1785 1776 1767 1760 1755 1752 1745 1739 1729 1728 1726 1720 1716 1713 1716 1716 1711 1710 1710 1717 1723 1729 1749 1767 1772 1723 1675 1631 1587 1554 1527 1511 1509 1509 1509 1509 1508 1508 1508 1505 1518 1537 1556 1563 1608 1642 1663 1647 1674 1700 1748 1786 1831 1887 1970 1888 1857 1764 1814 1878 1932 1983 2051 2009 1906 1798 1742 1714 1737 1724 1724 1705 1686 1686 1686 1682 1682 1682 1683 1686 1682 1680 1679 1677 1672 1664 1654 1641 1631 1625 1600 1590 1590 1578 1571 1573 1540 1553 1580 1599 1622 1662 1676 1681 1701 1678 1680 1688 1661 1623 1604 1587 1581 1584 1593 1615 1626 1613 1577 1562 1555 1551 1550 1557 1563 1559 1554 1543 1533 1531 1530 1528 1529 1525 1519 1506 1498 1495 1489 1483 1482 1479 1482 1489 1489 1496 1505 1509 1512 1523 1537 1550 1524 1501 1504 1509 1516 1528 1545 1552 1564 1586 1586 1608 1646 1671 1685 1629 1581 1556 1537 1533 1543 1534 1508 1518 1537 1585 1589 1599 1617 1634 1636 1629 1600 1576 1554 1528 1507 1489 1478 1505 1530 1541 1536 1536 1573 1612 1635 1630 1637 1665 1700 1719 1741 1756 1722 1702 1666 1635 1615 1605 1594 1582 1574 1566 1556 1547 1539 1533 1526 1519 1531 1548 1564 1585 1609 1632 1649 1650 1638 1614 1580 1550 1525 1541 1566 1586 1589 1572 1553 1531 1506 1488 1468 1463 1483 1510 1525 1507 1494 1503 1525 1549 1584 1610 1608 1588 1568 1555 1546 1537 1527 1519 1512 1503 1492 1485 1498 1514 1525 1534 1540 1540 1539 1536
2630 2593 2561 2540 2495 2444 2388 2313 2249 2240 2186 2134 2120 2144 2203 2260 2253 2217 2168 2107 2102 2144 2156 2137 2110 2080 2052 2021 1993 1983 1970 1955 1973 1992 1963 1954 1990 2022 2081 2135 2177 2195 2210 2215 2189 2190 2229 2258 2274 2273 2275 2282 2297 2318 2332 2350 2374 2350 2325 2310 2300 2263 2223 2201 2184 2193 2180 2149 2099 2047 2011 1998 1989 1977 1958 1932 1906 1868 1834 1815 1805 1795 1786 1776 1767 1763 1759 1754 1744 1736 1731 1729 1725 1726 1733 1739 1739 1735 1734 1731 1734 1737 1745 1766 1784 1804 1789 1741 1668 1654 1609 1551 1519 1506 1507 1507 1508 1508 1508 1508 1507 1509 1526 1537 1544 1551 1561 1578 1613 1634 1650 1687 1731 1796 1860 1922 1847 1778 1733 1813 1898 1920 1948 2007 2009 1903 1802 1740 1702 1684 1698 1704 1693 1669 1674 1688 1692 1689 1685 1685 1688 1677 1666 1659 1660 1659 1654 1645 1633 1618 1613 1605 1595 1582 1575 1570 1551 1538 1554 1582 1605 1629 1645 1660 1672 1685 1691 1671 1651 1683 1648 1605 1593 1580 1577 1580 1599 1610 1598 1568 1558 1555 1542 1539 1548 1560 1561 1559 1549 1535 1524 1523 1523 1531 1529 1529 1513 1498 1498 1492 1484 1476 1479 1478 1479 1485 1490 1495 1499 1507 1519 1517 1525 1525 1498 1505 1517 1532 1545 1546 1547 1547 1567 1588 1575 1608 1648 1663 1650 1583 1553 1530 1517 1515 1519 1505 1515 1546 1593 1579 1574 1590 1607 1608 1615 1611 1591 1567 1541 1513 1486 1475 1499 1518 1517 1523 1557 1600 1622 1613 1590 1624 1650 1684 1704 1723 1741 1716 1687 1658 1632 1613 1598 1589 1575 1566 1563 1556 1551 1546 1536 1522 1517 1540 1558 1574 1600 1617 1624 1636 1638 1627 1607 1572 1546 1515 1515 1539 1562 1576 1569 1555 1535 1510 1491 1468 1450 1466 1495 1507 1489 1488 1512 1539 1563 1581 1597 1598 1578 1553 1537 1529 1523 1515 1508 1502 1495 1489 1482 1492 1505 1514 1522 1530 1530 1528 1527
2687 2655 2620 2575 2513 2445 2384 2298 2227 2194 2154 2140 2162 2194 2249 2301 2273 2227 2171 2119 2142 2178 2194 2184 2162 2122 2082 2046 2019 2002 1985 1965 1948 1952 1952 1957 2001 2040 2084 2130 2163 2171 2185 2174 2145 2165 2216 2240 2244 2244 2249 2260 2277 2298 2309 2324 2340 2370 2378 2364 2341 2311 2283 2261 2246 2242 2212 2172 2115 2061 2020 1998 1989 1982 1968 1958 1946 1903 1849 1820 1807 1798 1791 1786 1779 1773 1770 1765 1755 1747 1740 1735 1735 1739 1753 1758 1759 1760 1757 1755 1756 1758 1768 1784 1800 1817 1822 1791 1717 1729 1692 1607 1556 1525 1506 1505 1505 1507 1508 1507 1507 1505 1523 1527 1528 1517 1511 1524 1564 1580 1610 1654 1701 1753 1805 1832 1819 1791 1703 1772 1838 1846 1902 1964 2000 1949 1842 1780 1735 1674 1659 1664 1680 1652 1662 1684 1696 1685 1679 1675 1673 1664 1653 1643 1639 1641 1644 1642 1632 1622 1610 1597 1587 1577 1566 1561 1533 1541 1566 1582 1608 1626 1620 1645 1662 1662 1682 1659 1640 1636 1629 1614 1596 1585 1572 1570 1581 1605 1592 1562 1558 1550 1537 1542 1563 1557 1551 1545 1538 1531 1524 1524 1521 1522 1530 1539 1525 1514 1504 1494 1490 1495 1471 1475 1476 1482 1485 1486 1489 1498 1507 1506 1510 1510 1494 1501 1526 1561 1574 1539 1533 1544 1545 1569 1577 1568 1605 1633 1657 1592 1551 1525 1508 1502 1503 1499 1520 1555 1580 1582 1561 1570 1578 1583 1610 1593 1582 1571 1556 1525 1481 1473 1488 1503 1519 1548 1572 1592 1590 1573 1589 1630 1643 1667 1684 1706 1724 1716 1680 1653 1629 1611 1597 1585 1574 1564 1547 1546 1538 1526 1521 1514 1527 1551 1567 1578 1600 1608 1610 1618 1623 1616 1602 1571 1544 1515 1495 1509 1532 1556 1556 1552 1536 1516 1491 1467 1450 1451 1478 1489 1475 1489 1520 1553 1569 1570 1578 1588 1572 1550 1533 1521 1515 1509 1502 1497 1491 1486 1480 1485 1496 1506 1516 1524 1521 1518 1517
2683 2719 2650 2579 2512 2435 2364 2264 2208 2171 2175 2210 2253 2266 2307 2321 2280 2219 2165 2161 2190 2218 2232 2222 2197 2155 2102 2060 2035 2019 2001 1989 1970 1946 1943 1949 1993 2023 2061 2102 2120 2120 2136 2121 2111 2149 2197 2213 2216 2220 2233 2247 2262 2276 2286 2303 2314 2329 2350 2362 2348 2336 2326 2310 2296 2272 2227 2172 2118 2068 2025 2002 1991 1988 1982 1971 1965 1938 1873 1832 1813 1801 1795 1789 1787 1782 1778 1773 1766 1760 1753 1744 1742 1747 1759 1764 1771 1771 1770 1773 1777 1783 1794 1810 1827 1838 1839 1821 1761 1781 1808 1710 1616 1565 1523 1516 1510 1506 1507 1506 1506 1506 1510 1514 1514 1514 1506 1510 1533 1545 1578 1617 1651 1680 1696 1719 1750 1764 1674 1726 1755 1798 1869 1909 1964 1949 1831 1758 1737 1684 1659 1640 1668 1639 1638 1658 1672 1664 1656 1656 1654 1651 1639 1630 1622 1622 1629 1635 1633 1627 1614 1597 1578 1562 1561 1560 1534 1563 1582 1590 1625 1648 1636 1615 1631 1641 1650 1645 1638 1664 1672 1639 1593 1581 1570 1565 1570 1593 1586 1562 1556 1539 1536 1546 1570 1569 1553 1544 1537 1532 1528 1524 1523 1519 1530 1540 1532 1527 1514 1499 1489 1494 1495 1471 1473 1474 1478 1476 1477 1482 1488 1493 1497 1497 1490 1493 1517 1556 1568 1528 1519 1530 1538 1549 1572 1554 1561 1615 1616 1615 1550 1519 1502 1497 1493 1497 1512 1539 1559 1575 1554 1557 1555 1575 1601 1582 1569 1569 1552 1528 1487 1473 1480 1502 1534 1558 1561 1552 1549 1567 1611 1626 1603 1639 1670 1693 1714 1707 1671 1647 1622 1603 1594 1585 1576 1567 1554 1541 1532 1524 1510 1513 1538 1557 1559 1568 1576 1581 1590 1601 1611 1603 1600 1575 1543 1515 1493 1486 1501 1518 1524 1531 1530 1515 1490 1464 1445 1441 1461 1471 1463 1486 1509 1529 1538 1547 1570 1584 1574 1558 1544 1532 1524 1518 1513 1508 1499 1489 1483 1479 1489 1502 1513 1518 1514 1511 1506
2655 2717 2652 2584 2508 2419 2342 2237 2191 2171 2193 2245 2284 2310 2328 2311 2264 2217 2198 2224 2243 2265 2263 2238 2203 2166 2120 2077 2060 2050 2029 2012 1992 1969 1941 1936 1952 1986 2023 2068 2081 2061 2085 2065 2086 2144 2179 2187 2195 2205 2220 2234 2247 2256 2264 2279 2287 2301 2317 2324 2320 2313 2318 2327 2305 2255 2202 2153 2103 2061 2029 2011 1996 1989 1986 1984 1973 1948 1893 1847 1824 1812 1799 1785 1783 1783 1778 1779 1776 1770 1766 1754 1747 1752 1761 1768 1771 1773 1771 1776 1788 1801 1823 1846 1865 1870 1857 1833 1773 1813 1853 1812 1688 1619 1550 1524 1517 1504 1507 1505 1505 1507 1504 1509 1505 1505 1505 1504 1513 1521 1534 1567 1591 1606 1626 1653 1683 1705 1673 1660 1705 1761 1816 1882 1957 1936 1817 1726 1693 1678 1657 1630 1639 1626 1614 1633 1661 1657 1637 1634 1632 1633 1623 1612 1607 1605 1609 1611 1610 1609 1605 1596 1577 1559 1553 1554 1541 1563 1600 1620 1627 1635 1647 1637 1614 1624 1648 1661 1648 1654 1684 1672 1604 1580 1566 1560 1561 1569 1566 1555 1546 1536 1535 1546 1567 1570 1567 1561 1553 1540 1535 1530 1525 1517 1521 1524 1536 1529 1520 1508 1491 1482 1485 1476 1471 1470 1471 1471 1474 1472 1475 1479 1482 1487 1487 1486 1509 1539 1549 1515 1508 1515 1528 1548 1534 1542 1535 1565 1598 1591 1539 1504 1500 1490 1487 1496 1504 1515 1532 1569 1554 1542 1541 1567 1581 1569 1553 1561 1549 1532 1506 1470 1465 1489 1516 1538 1530 1527 1557 1598 1615 1593 1578 1610 1652 1684 1705 1691 1658 1635 1608 1597 1591 1583 1575 1566 1558 1548 1530 1513 1505 1523 1545 1557 1547 1544 1547 1554 1568 1585 1592 1590 1584 1568 1540 1512 1490 1474 1474 1482 1487 1498 1508 1506 1476 1459 1443 1432 1442 1448 1454 1468 1485 1501 1519 1543 1572 1588 1582 1569 1559 1549 1537 1529 1522 1515 1503 1494 1486 1475 1486 1499 1508 1509 1507 1502 1498
2633 2696 2649 2580 2514 2435 2339 2232 2182 2171 2196 2242 2290 2329 2329 2307 2275 2262 2258 2276 2282 2280 2262 2230 2197 2163 2137 2109 2095 2084 2060 2042 2017 1993 1963 1933 1932 1941 1984 2028 2038 2010 2031 2033 2084 2138 2162 2169 2180 2191 2205 2215 2226 2235 2237 2253 2262 2276 2291 2297 2295 2284 2289 2306 2292 2241 2190 2136 2109 2080 2054 2017 1999 1987 1977 1942 1924 1904 1884 1860 1836 1821 1800 1781 1779 1778 1775 1777 1779 1773 1772 1764 1755 1754 1761 1770 1771 1771 1776 1787 1800 1821 1853 1886 1912 1906 1870 1827 1802 1845 1876 1871 1764 1681 1589 1551 1536 1511 1500 1503 1504 1506 1504 1506 1504 1504 1504 1502 1500 1505 1507 1524 1546 1568 1578 1595 1621 1645 1651 1633 1677 1737 1800 1869 1922 1896 1819 1710 1676 1654 1645 1618 1615 1608 1595 1607 1637 1641 1629 1615 1608 1606 1603 1592 1591 1587 1588 1588 1583 1581 1578 1575 1575 1564 1546 1545 1531 1555 1596 1623 1615 1625 1634 1633 1618 1622 1639 1654 1646 1628 1676 1687 1644 1587 1566 1557 1551 1549 1543 1537 1532 1530 1530 1535 1548 1547 1549 1555 1547 1537 1531 1527 1522 1521 1517 1521 1524 1522 1517 1523 1508 1489 1482 1472 1468 1469 1468 1468 1469 1467 1467 1472 1473 1478 1479 1481 1501 1520 1527 1501 1502 1512 1533 1550 1552 1524 1526 1527 1559 1543 1533 1502 1497 1484 1487 1493 1500 1511 1518 1524 1538 1534 1530 1547 1561 1556 1544 1543 1555 1547 1531 1496 1469 1465 1483 1503 1508 1547 1584 1601 1585 1561 1572 1605 1644 1678 1693 1671 1639 1620 1600 1585 1570 1575 1571 1561 1545 1535 1517 1501 1513 1533 1546 1554 1540 1526 1523 1532 1555 1574 1577 1572 1567 1559 1538 1509 1490 1476 1462 1459 1460 1467 1479 1485 1473 1451 1433 1426 1435 1448 1465 1480 1496 1515 1535 1555 1576 1584 1582 1577 1571 1562 1544 1530 1518 1506 1495 1487 1480 1472 1481 1494 1500 1500 1496 1493 1498
2623 2682 2643 2565 2511 2439 2346 2250 2196 2171 2208 2275 2347 2378 2358 2327 2309 2300 2279 2279 2266 2239 2221 2203 2180 2170 2154 2138 2130 2116 2100 2081 2053 2023 1993 1958 1933 1928 1942 1971 1988 1971 1999 2040 2094 2136 2145 2150 2165 2174 2188 2197 2204 2213 2216 2231 2238 2253 2265 2271 2267 2254 2264 2288 2298 2256 2222 2191 2152 2110 2064 2025 2009 1989 1978 1979 1963 1932 1909 1873 1846 1830 1806 1783 1776 1774 1772 1771 1774 1772 1771 1772 1764 1758 1760 1768 1769 1771 1784 1801 1816 1837 1872 1906 1932 1928 1880 1837 1836 1871 1898 1908 1848 1753 1665 1628 1577 1536 1514 1510 1505 1505 1503 1500 1500 1502 1503 1503 1501 1500 1499 1499 1511 1527 1543 1551 1574 1593 1604 1593 1653 1705 1753 1804 1851 1822 1771 1684 1665 1646 1622 1608 1599 1593 1583 1580 1602 1619 1614 1600 1589 1582 1579 1575 1574 1573 1573 1570 1564 1562 1556 1551 1559 1560 1546 1518 1515 1540 1580 1595 1594 1612 1621 1633 1619 1608 1622 1616 1615 1614 1643 1660 1676 1607 1569 1555 1546 1540 1534 1527 1522 1518 1519 1518 1521 1522 1517 1528 1534 1535 1536 1536 1534 1532 1518 1518 1509 1508 1506 1513 1526 1517 1501 1489 1474 1466 1466 1467 1466 1465 1463 1466 1466 1467 1469 1477 1494 1510 1509 1491 1503 1522 1555 1545 1540 1530 1527 1538 1514 1523 1517 1493 1482 1483 1497 1517 1523 1518 1527 1529 1524 1527 1521 1520 1534 1543 1539 1524 1542 1550 1544 1524 1485 1458 1461 1480 1508 1553 1573 1568 1545 1543 1589 1619 1653 1672 1667 1638 1609 1596 1583 1556 1539 1543 1551 1554 1535 1515 1499 1502 1528 1533 1537 1548 1535 1518 1506 1520 1548 1567 1568 1556 1551 1555 1546 1521 1496 1480 1465 1454 1447 1447 1454 1461 1459 1442 1428 1422 1439 1458 1477 1501 1521 1538 1553 1564 1566 1568 1569 1571 1570 1561 1538 1517 1504 1494 1488 1483 1477 1470 1472 1484 1488 1486 1485 1492 1502
2620 2678 2642 2559 2497 2433 2354 2267 2218 2195 2225 2301 2379 2419 2398 2346 2311 2287 2256 2226 2202 2180 2161 2148 2139 2142 2152 2151 2128 2114 2105 2091 2086 2057 2021 1981 1954 1929 1922 1930 1951 1971 2010 2052 2098 2126 2129 2134 2147 2156 2169 2178 2185 2193 2200 2211 2216 2229 2240 2244 2237 2221 2247 2271 2290 2291 2250 2207 2157 2108 2063 2030 2011 1993 1978 1973 1978 1957 1926 1876 1871 1854 1823 1798 1779 1771 1769 1766 1767 1770 1768 1774 1771 1764 1761 1765 1767 1771 1787 1805 1826 1845 1871 1904 1935 1951 1902 1854 1865 1913 1939 1950 1902 1816 1726 1731 1656 1585 1547 1529 1521 1515 1514 1510 1506 1504 1501 1503 1503 1503 1503 1501 1496 1499 1516 1527 1541 1557 1567 1576 1624 1661 1694 1736 1768 1763 1685 1657 1638 1616 1608 1597 1590 1585 1576 1567 1570 1596 1598 1591 1585 1575 1568 1563 1563 1565 1567 1559 1556 1550 1546 1543 1540 1542 1544 1537 1515 1535 1566 1577 1585 1600 1616 1629 1622 1593 1598 1590 1588 1589 1599 1636 1677 1645 1589 1564 1552 1538 1530 1524 1521 1515 1508 1506 1507 1511 1509 1515 1529 1538 1544 1546 1542 1533 1523 1519 1509 1501 1497 1501 1504 1511 1512 1509 1491 1468 1464 1464 1465 1464 1461 1460 1460 1460 1462 1470 1484 1497 1494 1486 1505 1532 1565 1566 1549 1529 1514 1516 1516 1504 1499 1480 1478 1497 1514 1537 1554 1546 1545 1552 1534 1529 1524 1513 1507 1521 1520 1512 1528 1534 1542 1524 1506 1477 1452 1465 1497 1528 1540 1525 1521 1554 1600 1630 1648 1658 1635 1601 1568 1566 1554 1525 1510 1512 1518 1525 1519 1502 1494 1515 1531 1524 1525 1537 1531 1512 1497 1509 1532 1552 1553 1532 1525 1542 1551 1539 1513 1493 1478 1464 1453 1443 1436 1438 1438 1426 1417 1420 1439 1460 1481 1505 1533 1554 1567 1570 1561 1548 1551 1562 1565 1555 1533 1518 1506 1498 1494 1491 1488 1476 1466 1471 1475 1475 1483 1498 1510
2633 2685 2638 2559 2492 2418 2337 2265 2221 2206 2235 2304 2382 2433 2419 2353 2300 2255 2212 2186 2167 2147 2131 2113 2097 2091 2099 2131 2111 2096 2087 2074 2072 2070 2054 2019 1983 1951 1929 1919 1927 1950 1985 2035 2087 2106 2109 2119 2129 2135 2146 2155 2163 2172 2179 2189 2192 2203 2213 2215 2206 2189 2228 2251 2266 2278 2250 2199 2148 2112 2083 2055 2024 1995 1980 1960 1969 1959 1927 1914 1914 1891 1853 1821 1797 1773 1768 1764 1762 1767 1767 1770 1773 1768 1764 1764 1770 1770 1780 1798 1819 1839 1866 1900 1933 1962 1936 1878 1876 1938 1973 1988 1947 1888 1848 1854 1778 1669 1609 1563 1538 1527 1531 1528 1523 1516 1502 1499 1501 1503 1503 1503 1502 1500 1500 1513 1525 1538 1548 1561 1593 1619 1655 1673 1673 1660 1616 1615 1615 1601 1592 1588 1582 1577 1570 1562 1554 1564 1580 1584 1585 1576 1564 1558 1563 1562 1562 1560 1558 1552 1552 1549 1544 1540 1533 1533 1532 1512 1548 1565 1583 1599 1608 1619 1615 1600 1590 1589 1591 1593 1580 1609 1651 1664 1625 1575 1556 1539 1532 1529 1530 1521 1508 1499 1498 1494 1501 1505 1524 1539 1551 1553 1548 1543 1537 1529 1518 1510 1503 1491 1487 1486 1485 1482 1477 1470 1464 1462 1461 1461 1458 1458 1457 1457 1456 1460 1467 1477 1483 1480 1490 1515 1534 1557 1559 1532 1510 1499 1499 1498 1484 1475 1521 1546 1556 1564 1577 1574 1568 1563 1546 1529 1517 1514 1500 1498 1497 1497 1503 1511 1524 1520 1513 1497 1468 1446 1471 1501 1497 1501 1541 1586 1610 1625 1632 1626 1604 1564 1537 1535 1517 1497 1487 1488 1491 1494 1492 1492 1506 1525 1524 1516 1515 1521 1521 1507 1489 1488 1507 1526 1526 1508 1507 1531 1549 1551 1539 1516 1494 1478 1462 1450 1437 1428 1434 1423 1411 1417 1439 1462 1488 1516 1544 1560 1572 1566 1549 1531 1535 1557 1560 1554 1540 1533 1521 1509 1502 1499 1497 1485 1469 1461 1468 1479 1494 1504 1515
2674 2718 2644 2561 2474 2403 2320 2252 2213 2200 2241 2308 2384 2435 2418 2357 2297 2252 2223 2215 2200 2177 2149 2124 2105 2081 2059 2093 2088 2080 2067 2054 2050 2048 2050 2041 2001 1959 1931 1924 1917 1919 1955 2021 2077 2082 2081 2102 2108 2110 2120 2129 2138 2150 2159 2169 2172 2179 2187 2188 2174 2170 2210 2229 2243 2259 2253 2214 2186 2161 2122 2081 2041 2005 1981 1952 1952 1963 1964 1960 1959 1944 1900 1849 1822 1791 1774 1765 1760 1759 1763 1768 1773 1771 1765 1763 1767 1768 1776 1792 1812 1833 1857 1892 1933 1965 1965 1905 1887 1944 1987 2016 2010 1962 1933 1941 1940 1790 1701 1646 1582 1552 1552 1543 1541 1531 1517 1507 1505 1500 1501 1501 1501 1504 1500 1502 1516 1527 1536 1547 1560 1565 1585 1601 1607 1599 1582 1584 1588 1581 1578 1575 1572 1568 1562 1556 1548 1543 1553 1563 1571 1569 1556 1551 1565 1566 1567 1565 1569 1568 1568 1565 1560 1551 1538 1533 1530 1508 1528 1562 1573 1585 1602 1613 1628 1634 1626 1615 1617 1611 1582 1578 1598 1620 1611 1571 1548 1539 1539 1543 1542 1535 1519 1508 1492 1478 1478 1485 1498 1515 1539 1555 1556 1553 1547 1535 1525 1532 1517 1498 1487 1484 1483 1479 1473 1474 1474 1472 1466 1459 1459 1455 1457 1455 1454 1454 1455 1460 1468 1468 1474 1488 1502 1527 1561 1548 1513 1496 1494 1500 1489 1468 1494 1542 1586 1623 1627 1602 1581 1574 1557 1528 1508 1505 1507 1501 1496 1493 1487 1484 1487 1491 1490 1497 1503 1452 1443 1466 1483 1524 1567 1574 1584 1618 1623 1593 1571 1554 1509 1497 1487 1476 1473 1475 1479 1484 1492 1503 1517 1521 1515 1508 1507 1506 1507 1496 1477 1476 1485 1502 1501 1491 1498 1526 1545 1553 1549 1530 1505 1487 1472 1458 1442 1429 1439 1425 1408 1414 1440 1464 1492 1511 1520 1537 1559 1556 1530 1512 1528 1551 1549 1549 1546 1536 1522 1509 1500 1497 1494 1487 1476 1462 1471 1490 1502 1510 1520
2728 2741 2650 2570 2479 2387 2314 2257 2220 2207 2250 2323 2383 2451 2421 2363 2316 2293 2286 2255 2220 2186 2147 2119 2100 2069 2061 2066 2056 2051 2041 2032 2027 2023 2024 2019 1984 1942 1942 1951 1934 1914 1927 2003 2037 2033 2077 2083 2085 2086 2092 2102 2114 2127 2140 2152 2154 2158 2163 2159 2144 2174 2195 2205 2220 2242 2257 2253 2227 2185 2136 2087 2043 2007 1981 1957 1949 1968 1985 1985 1983 1979 1956 1899 1855 1816 1788 1771 1762 1754 1755 1767 1771 1772 1766 1763 1764 1769 1777 1787 1807 1827 1850 1885 1928 1965 1982 1951 1912 1937 1984 2022 2043 2021 1989 1995 2032 1963 1848 1763 1662 1603 1575 1563 1555 1549 1534 1525 1518 1506 1503 1504 1507 1518 1510 1499 1502 1521 1527 1526 1526 1535 1546 1550 1560 1563 1557 1562 1566 1564 1564 1562 1561 1558 1553 1547 1542 1537 1535 1538 1546 1553 1549 1541 1547 1557 1563 1562 1571 1578 1578 1576 1573 1560 1537 1519 1530 1531 1512 1530 1550 1566 1588 1600 1630 1657 1660 1669 1674 1654 1611 1570 1563 1571 1570 1556 1544 1543 1552 1559 1554 1541 1522 1507 1487 1473 1455 1448 1461 1459 1486 1532 1553 1555 1536 1515 1535 1553 1536 1513 1498 1492 1495 1495 1496 1493 1487 1481 1473 1468 1463 1457 1455 1454 1454 1452 1450 1450 1454 1456 1462 1469 1481 1505 1551 1556 1528 1504 1489 1486 1499 1473 1461 1492 1536 1581 1617 1630 1606 1581 1554 1526 1504 1497 1501 1505 1512 1512 1519 1508 1493 1481 1474 1489 1517 1494 1440 1440 1484 1522 1527 1533 1579 1616 1617 1583 1544 1528 1493 1474 1469 1470 1487 1497 1498 1502 1513 1520 1518 1514 1505 1499 1499 1498 1498 1486 1470 1471 1478 1493 1486 1475 1489 1519 1539 1542 1533 1516 1496 1482 1472 1462 1449 1429 1415 1418 1403 1412 1438 1455 1466 1481 1495 1520 1541 1537 1514 1493 1508 1523 1522 1545 1545 1532 1515 1502 1493 1490 1489 1492 1482 1466 1473 1497 1505 1513 1519
2789 2771 2668 2588 2500 2399 2321 2278 2240 2245 2278 2374 2444 2464 2413 2363 2327 2311 2290 2249 2220 2200 2187 2149 2118 2096 2067 2041 2031 2020 2010 2003 1999 1991 1988 1982 1955 1949 1965 1964 1950 1926 1912 1957 1978 2034 2070 2064 2066 2068 2071 2080 2093 2105 2118 2134 2136 2137 2135 2124 2130 2170 2177 2181 2199 2225 2251 2268 2239 2182 2127 2076 2045 2020 1990 1957 1937 1962 1988 1998 1994 1991 1986 1959 1895 1841 1806 1781 1766 1756 1751 1763 1767 1770 1766 1764 1765 1769 1776 1783 1801 1823 1845 1878 1921 1961 1993 1996 1953 1938 1975 2034 2083 2079 2044 2050 2078 2054 1955 1832 1727 1627 1600 1587 1578 1571 1554 1540 1530 1524 1517 1518 1522 1520 1517 1509 1501 1510 1512 1514 1511 1519 1534 1534 1537 1536 1541 1543 1550 1552 1552 1552 1551 1550 1545 1539 1534 1530 1526 1522 1525 1532 1535 1530 1527 1533 1538 1542 1552 1569 1585 1584 1578 1562 1546 1531 1514 1523 1521 1503 1540 1548 1565 1580 1604 1626 1631 1658 1678 1675 1667 1626 1582 1562 1557 1557 1557 1557 1560 1550 1532 1516 1499 1474 1454 1441 1448 1448 1444 1446 1453 1459 1482 1494 1491 1495 1508 1526 1545 1544 1524 1512 1510 1521 1523 1512 1503 1492 1483 1477 1467 1462 1456 1451 1452 1450 1449 1447 1446 1448 1452 1458 1467 1487 1517 1547 1544 1517 1498 1480 1477 1486 1466 1468 1516 1543 1572 1612 1636 1613 1557 1527 1506 1495 1491 1487 1494 1507 1525 1533 1529 1511 1476 1468 1503 1515 1467 1437 1446 1478 1496 1544 1584 1595 1575 1548 1520 1484 1462 1458 1471 1497 1525 1538 1532 1524 1523 1520 1516 1510 1498 1492 1492 1493 1490 1478 1465 1466 1476 1481 1477 1465 1480 1507 1525 1520 1505 1494 1483 1472 1466 1458 1448 1438 1423 1408 1400 1410 1432 1442 1448 1452 1467 1494 1505 1513 1512 1484 1468 1481 1505 1541 1544 1529 1510 1494 1487 1491 1501 1493 1474 1469 1469 1494 1500 1507 1513
2825 2810 2733 2636 2545 2451 2368 2335 2323 2310 2319 2425 2496 2440 2369 2337 2313 2298 2286 2276 2262 2235 2193 2150 2121 2096 2067 2047 2041 2033 2021 2009 1997 1990 1984 1974 1968 1983 1990 1970 1957 1942 1919 1938 1991 2044 2054 2051 2054 2056 2059 2065 2075 2088 2103 2117 2117 2116 2103 2098 2132 2158 2153 2157 2183 2209 2239 2264 2243 2185 2143 2116 2079 2033 1994 1955 1930 1952 1982 1996 1994 1990 1986 1984 1948 1868 1825 1792 1770 1758 1750 1752 1763 1769 1765 1764 1765 1768 1774 1782 1798 1819 1839 1868 1914 1960 1997 2012 1996 1968 1971 2029 2089 2119 2115 2106 2103 2075 2018 1874 1725 1661 1656 1626 1602 1596 1578 1564 1552 1540 1532 1531 1531 1527 1522 1517 1506 1497 1499 1506 1504 1515 1535 1529 1529 1529 1532 1534 1537 1539 1542 1542 1542 1541 1536 1531 1527 1523 1519 1515 1514 1517 1523 1522 1520 1518 1518 1520 1525 1540 1563 1576 1577 1564 1546 1528 1508 1499 1496 1511 1518 1524 1544 1565 1577 1589 1602 1628 1639 1645 1665 1669 1641 1597 1588 1608 1606 1588 1553 1525 1509 1489 1464 1444 1447 1450 1449 1448 1448 1447 1443 1446 1452 1449 1451 1450 1454 1463 1482 1518 1538 1537 1537 1546 1549 1533 1518 1503 1493 1487 1478 1469 1464 1456 1448 1447 1448 1447 1445 1443 1443 1447 1453 1466 1481 1500 1517 1520 1506 1490 1475 1467 1456 1459 1497 1508 1526 1571 1611 1623 1600 1564 1525 1498 1482 1472 1468 1474 1486 1504 1513 1508 1485 1455 1466 1505 1503 1453 1430 1447 1488 1520 1554 1582 1552 1505 1484 1459 1463 1496 1495 1516 1550 1561 1557 1538 1525 1518 1509 1504 1496 1487 1487 1486 1483 1478 1468 1461 1463 1464 1469 1460 1469 1486 1499 1492 1479 1476 1472 1465 1460 1448 1439 1431 1413 1403 1395 1401 1419 1424 1429 1433 1437 1448 1457 1477 1492 1479 1449 1448 1490 1526 1540 1530 1510 1492 1488 1497 1504 1491 1478 1464 1461 1480 1486 1496 1504
2762 2768 2782 2740 2637 2543 2482 2451 2430 2397 2432 2493 2424 2366 2310 2293 2293 2303 2319 2323 2287 2240 2191 2146 2110 2084 2072 2066 2058 2052 2045 2035 2022 2018 2011 2001 1999 2004 1996 1974 1960 1939 1908 1947 2015 2035 2035 2035 2041 2040 2043 2052 2063 2078 2094 2098 2099 2096 2072 2075 2130 2131 2124 2147 2181 2205 2231 2259 2265 2221 2179 2143 2095 2039 1989 1954 1926 1932 1969 1981 1983 1982 1976 1980 1974 1909 1843 1803 1777 1760 1750 1745 1754 1766 1762 1761 1761 1767 1772 1780 1794 1812 1831 1859 1907 1957 1998 2022 2023 2008 1988 2014 2080 2132 2160 2150 2091 2026 1930 1828 1784 1805 1765 1666 1632 1630 1612 1594 1581 1562 1550 1555 1558 1541 1534 1528 1523 1518 1506 1501 1498 1506 1523 1530 1530 1530 1530 1529 1529 1532 1533 1533 1535 1532 1528 1523 1520 1518 1516 1511 1509 1507 1506 1509 1513 1514 1514 1514 1512 1514 1528 1548 1561 1560 1547 1524 1506 1498 1493 1495 1510 1521 1523 1537 1549 1560 1573 1588 1594 1604 1625 1647 1658 1647 1632 1646 1644 1607 1547 1518 1495 1460 1445 1450 1451 1451 1450 1449 1449 1447 1446 1445 1443 1444 1445 1444 1442 1445 1442 1448 1487 1526 1530 1536 1539 1543 1538 1519 1513 1505 1489 1480 1480 1469 1454 1451 1447 1443 1444 1444 1442 1439 1441 1446 1454 1466 1475 1482 1481 1476 1466 1467 1460 1456 1467 1484 1508 1529 1567 1601 1596 1557 1519 1489 1474 1465 1458 1452 1454 1464 1467 1469 1472 1455 1443 1483 1517 1493 1442 1430 1450 1485 1531 1558 1543 1489 1450 1450 1496 1548 1547 1540 1577 1588 1572 1550 1533 1521 1506 1495 1491 1494 1492 1485 1481 1481 1474 1460 1447 1456 1465 1457 1459 1466 1476 1475 1464 1460 1460 1453 1446 1436 1426 1413 1401 1393 1391 1392 1404 1410 1410 1412 1419 1419 1420 1433 1448 1457 1435 1425 1467 1509 1535 1524 1504 1490 1489 1490 1488 1494 1484 1460 1454 1463 1474 1487 1496
2689 2692 2713 2735 2733 2682 2604 2569 2564 2565 2587 2510 2372 2300 2258 2239 2245 2264 2290 2305 2283 2238 2194 2158 2129 2104 2085 2083 2088 2089 2085 2073 2055 2045 2035 2030 2031 2017 1992 1976 1960 1924 1905 1971 2011 2016 2014 2018 2021 2013 2016 2038 2057 2075 2083 2079 2079 2075 2053 2061 2099 2092 2107 2151 2173 2196 2221 2245 2249 2206 2155 2115 2088 2044 1994 1964 1930 1912 1943 1960 1965 1969 1968 1966 1975 1948 1862 1815 1786 1762 1751 1745 1744 1762 1758 1758 1761 1765 1769 1778 1792 1809 1826 1851 1896 1949 1995 2027 2041 2043 2034 2035 2078 2135 2172 2155 2074 2022 1965 1925 1915 1887 1791 1710 1684 1675 1657 1641 1626 1599 1578 1575 1574 1569 1560 1545 1537 1535 1526 1515 1499 1499 1516 1526 1531 1529 1528 1529 1528 1529 1530 1530 1529 1525 1521 1517 1516 1509 1502 1512 1508 1499 1490 1491 1501 1514 1514 1512 1510 1508 1508 1519 1532 1537 1536 1522 1504 1493 1490 1491 1502 1510 1512 1517 1523 1531 1540 1554 1562 1574 1588 1606 1622 1625 1617 1620 1623 1591 1544 1517 1473 1446 1452 1454 1452 1451 1451 1450 1448 1447 1446 1444 1444 1444 1442 1442 1443 1442 1439 1439 1448 1470 1492 1496 1488 1481 1489 1510 1526 1523 1504 1499 1497 1479 1464 1461 1456 1447 1442 1442 1443 1439 1434 1431 1436 1446 1449 1450 1453 1453 1451 1451 1459 1455 1447 1469 1481 1493 1525 1560 1550 1513 1490 1469 1461 1461 1457 1455 1445 1438 1454 1445 1442 1443 1437 1455 1503 1523 1480 1436 1421 1441 1488 1532 1525 1478 1446 1466 1505 1535 1570 1591 1588 1578 1566 1540 1528 1516 1505 1494 1488 1492 1490 1483 1477 1474 1467 1448 1433 1451 1458 1457 1455 1458 1470 1470 1459 1448 1441 1437 1431 1424 1417 1406 1399 1393 1389 1387 1395 1401 1397 1394 1397 1397 1396 1399 1406 1414 1408 1411 1451 1497 1525 1517 1502 1495 1491 1487 1487 1482 1470 1460 1451 1456 1472 1483 1487
2614 2623 2641 2673 2712 2754 2749 2693 2693 2704 2633 2507 2394 2282 2238 2210 2201 2211 2229 2250 2263 2235 2197 2172 2157 2134 2113 2114 2125 2131 2128 2113 2087 2068 2059 2053 2042 2019 1991 1968 1945 1911 1898 1950 1985 1992 1993 1998 1994 1984 2004 2031 2054 2069 2069 2063 2062 2059 2039 2033 2054 2070 2112 2142 2159 2183 2206 2228 2226 2178 2124 2078 2049 2021 1984 1956 1935 1911 1914 1944 1942 1950 1958 1954 1966 1960 1881 1825 1792 1765 1751 1741 1741 1756 1756 1755 1758 1763 1768 1777 1789 1806 1823 1844 1885 1940 1989 2027 2051 2064 2072 2084 2114 2149 2182 2176 2116 2080 2064 2039 1965 1871 1824 1802 1758 1731 1708 1694 1682 1664 1637 1608 1591 1579 1577 1579 1557 1547 1540 1529 1515 1502 1497 1505 1518 1535 1532 1527 1526 1530 1531 1530 1527 1520 1513 1512 1508 1497 1488 1495 1495 1491 1488 1486 1490 1499 1502 1501 1498 1500 1500 1501 1510 1519 1523 1514 1502 1489 1485 1487 1497 1501 1499 1504 1503 1507 1514 1524 1535 1544 1548 1559 1569 1573 1573 1578 1583 1568 1540 1508 1459 1450 1454 1454 1453 1453 1453 1451 1450 1450 1449 1448 1447 1446 1444 1442 1441 1440 1440 1440 1438 1441 1450 1449 1440 1438 1442 1452 1473 1504 1517 1520 1512 1494 1476 1471 1464 1453 1444 1440 1439 1437 1437 1437 1432 1431 1434 1439 1443 1443 1441 1441 1447 1443 1440 1454 1457 1469 1484 1500 1495 1474 1461 1452 1455 1456 1443 1430 1418 1416 1426 1423 1422 1422 1422 1431 1465 1507 1512 1467 1428 1422 1450 1498 1525 1510 1459 1437 1474 1515 1545 1560 1553 1554 1544 1514 1510 1507 1503 1499 1498 1499 1496 1490 1478 1466 1445 1432 1445 1453 1456 1455 1445 1450 1462 1456 1443 1435 1431 1426 1418 1410 1409 1407 1396 1390 1383 1382 1385 1384 1384 1381 1378 1378 1377 1377 1377 1381 1386 1399 1433 1471 1496 1504 1504 1506 1501 1492 1481 1471 1467 1460 1448 1453 1469 1478 1478
2544 2556 2577 2608 2653 2701 2745 2796 2785 2697 2596 2487 2388 2295 2253 2226 2219 2219 2223 2234 2239 2231 2201 2176 2157 2144 2142 2142 2136 2137 2131 2122 2111 2098 2076 2056 2037 2017 1992 1961 1933 1906 1888 1917 1959 1969 1975 1974 1968 1980 2002 2019 2038 2049 2052 2049 2044 2036 2012 2009 2049 2082 2108 2128 2144 2160 2184 2199 2190 2163 2122 2075 2038 2007 1985 1959 1943 1929 1907 1912 1931 1933 1947 1948 1954 1949 1888 1830 1793 1768 1751 1742 1738 1744 1753 1751 1756 1761 1766 1775 1788 1805 1820 1840 1880 1928 1975 2019 2047 2074 2093 2112 2137 2162 2190 2202 2169 2117 2071 2008 1932 1894 1910 1900 1848 1815 1781 1743 1719 1720 1709 1660 1614 1584 1577 1619 1595 1559 1549 1542 1528 1521 1508 1494 1494 1494 1507 1530 1535 1534 1532 1528 1522 1511 1508 1509 1500 1486 1487 1484 1486 1487 1488 1489 1486 1483 1484 1485 1483 1482 1484 1485 1489 1497 1499 1493 1489 1491 1485 1485 1493 1489 1488 1496 1500 1500 1500 1508 1520 1524 1521 1521 1525 1530 1535 1546 1551 1541 1526 1488 1449 1454 1455 1454 1454 1454 1455 1453 1454 1453 1451 1449 1450 1448 1444 1443 1443 1442 1438 1439 1438 1440 1440 1434 1435 1435 1432 1433 1438 1451 1473 1491 1499 1494 1481 1471 1456 1449 1447 1444 1442 1438 1439 1441 1436 1432 1429 1430 1432 1433 1437 1432 1429 1433 1431 1431 1436 1444 1448 1458 1460 1444 1435 1428 1429 1426 1415 1406 1403 1403 1399 1402 1406 1405 1408 1413 1427 1466 1505 1502 1461 1425 1417 1455 1510 1514 1466 1432 1453 1492 1515 1526 1523 1525 1508 1482 1486 1489 1488 1497 1493 1491 1497 1495 1482 1456 1423 1429 1466 1464 1460 1449 1433 1431 1432 1426 1420 1413 1409 1407 1405 1400 1394 1391 1386 1383 1379 1379 1380 1377 1376 1373 1371 1370 1368 1368 1368 1370 1374 1379 1396 1428 1456 1471 1489 1507 1507 1492 1477 1476 1472 1461 1448 1448 1463 1467 1471
2474 2487 2517 2553 2590 2641 2704 2792 2816 2710 2610 2506 2383 2328 2319 2331 2336 2282 2234 2232 2227 2219 2192 2172 2165 2159 2167 2152 2121 2114 2111 2113 2125 2117 2085 2055 2035 2014 1992 1966 1936 1905 1885 1891 1922 1945 1950 1948 1958 1979 1988 1999 2011 2022 2032 2031 2023 1999 1982 2019 2063 2076 2091 2111 2129 2146 2168 2166 2130 2112 2110 2087 2056 2033 2009 1978 1953 1938 1903 1881 1908 1924 1935 1938 1941 1934 1887 1830 1793 1768 1749 1741 1733 1734 1750 1748 1753 1759 1765 1773 1788 1803 1816 1833 1869 1916 1963 2006 2041 2073 2099 2124 2148 2172 2194 2213 2194 2133 2075 2019 1982 1978 1987 1972 1942 1913 1855 1784 1742 1736 1729 1685 1636 1609 1589 1633 1649 1593 1566 1560 1544 1531 1527 1516 1502 1497 1497 1499 1509 1520 1528 1535 1522 1506 1506 1504 1492 1484 1487 1488 1486 1487 1489 1489 1487 1486 1486 1486 1486 1485 1483 1480 1477 1478 1477 1479 1488 1491 1486 1478 1483 1484 1475 1476 1474 1470 1470 1472 1476 1480 1481 1476 1483 1496 1495 1504 1512 1513 1498 1462 1450 1455 1455 1455 1455 1455 1454 1453 1453 1452 1451 1449 1448 1450 1451 1448 1445 1445 1446 1445 1441 1442 1443 1441 1438 1434 1434 1433 1435 1436 1436 1440 1444 1459 1474 1468 1459 1453 1453 1450 1446 1442 1440 1438 1437 1435 1430 1430 1433 1432 1430 1428 1428 1428 1429 1429 1426 1426 1425 1426 1426 1424 1422 1419 1414 1407 1404 1404 1403 1403 1403 1401 1400 1398 1401 1405 1406 1426 1467 1505 1492 1452 1422 1421 1479 1507 1474 1435 1427 1451 1480 1495 1496 1494 1474 1453 1447 1445 1440 1444 1440 1438 1443 1448 1451 1438 1419 1438 1465 1457 1448 1437 1422 1415 1412 1410 1406 1400 1396 1395 1396 1394 1385 1378 1378 1378 1373 1375 1379 1375 1373 1370 1368 1368 1366 1365 1365 1366 1366 1364 1366 1387 1412 1433 1460 1487 1504 1498 1483 1478 1475 1464 1448 1444 1451 1459 1473
2415 2416 2454 2503 2551 2617 2680 2749 2820 2802 2689 2559 2473 2460 2487 2482 2421 2329 2253 2222 2208 2183 2152 2138 2156 2161 2148 2139 2109 2088 2084 2090 2104 2103 2089 2069 2046 2015 1989 1971 1949 1922 1892 1879 1887 1910 1928 1934 1950 1963 1968 1981 1994 2001 2009 2012 1991 1966 1988 2035 2052 2062 2076 2096 2113 2128 2147 2140 2093 2057 2055 2050 2030 2012 1998 1976 1949 1927 1913 1882 1880 1916 1923 1922 1922 1925 1887 1827 1792 1767 1749 1734 1729 1735 1744 1744 1749 1756 1763 1774 1789 1803 1815 1833 1862 1900 1949 1996 2037 2072 2102 2128 2153 2175 2193 2212 2196 2141 2099 2074 2067 2070 2064 2028 1979 1931 1863 1793 1750 1726 1706 1678 1650 1624 1600 1632 1677 1639 1582 1572 1557 1536 1533 1537 1534 1506 1492 1494 1496 1498 1499 1514 1518 1506 1502 1493 1487 1488 1490 1489 1485 1484 1489 1490 1488 1486 1486 1485 1485 1486 1484 1482 1481 1480 1481 1478 1482 1489 1485 1479 1475 1473 1469 1469 1469 1467 1465 1466 1468 1465 1463 1460 1463 1466 1464 1465 1469 1473 1465 1453 1456 1456 1457 1457 1457 1455 1457 1459 1457 1457 1456 1453 1448 1446 1448 1449 1448 1447 1444 1444 1447 1445 1443 1442 1441 1437 1433 1431 1432 1434 1429 1427 1424 1432 1444 1444 1443 1441 1446 1446 1442 1440 1439 1436 1435 1434 1429 1428 1427 1429 1431 1428 1427 1426 1427 1428 1425 1423 1421 1419 1419 1420 1418 1413 1407 1404 1405 1404 1403 1403 1404 1402 1400 1399 1398 1396 1396 1399 1427 1484 1510 1477 1436 1414 1452 1504 1493 1456 1425 1419 1431 1457 1472 1455 1439 1435 1420 1407 1402 1400 1398 1395 1398 1399 1400 1398 1394 1407 1424 1426 1420 1421 1415 1408 1408 1404 1402 1401 1398 1394 1390 1384 1377 1370 1368 1369 1368 1369 1369 1367 1369 1370 1370 1369 1367 1366 1365 1364 1363 1362 1360 1361 1372 1393 1427 1469 1497 1499 1484 1477 1474 1463 1448 1441 1448 1461 1474
2369 2361 2389 2461 2526 2577 2648 2711 2763 2800 2791 2740 2678 2624 2590 2516 2403 2321 2263 2216 2192 2154 2111 2093 2109 2127 2110 2103 2093 2068 2056 2058 2074 2080 2079 2068 2053 2032 1998 1970 1955 1935 1907 1884 1875 1888 1901 1913 1935 1944 1951 1963 1977 1984 1993 1989 1948 1953 2007 2032 2039 2050 2064 2078 2092 2104 2115 2103 2069 2027 2008 2015 1993 1965 1960 1956 1942 1918 1906 1883 1868 1896 1909 1909 1904 1914 1886 1819 1786 1763 1746 1727 1727 1736 1736 1741 1748 1754 1762 1774 1789 1801 1814 1836 1865 1906 1958 2003 2037 2071 2100 2127 2152 2173 2194 2199 2169 2126 2092 2066 2065 2084 2075 2022 1949 1884 1823 1775 1741 1718 1704 1681 1657 1627 1611 1643 1692 1663 1589 1565 1549 1531 1528 1530 1526 1521 1513 1502 1494 1493 1493 1495 1501 1499 1492 1488 1487 1488 1490 1488 1486 1484 1486 1488 1489 1487 1485 1485 1484 1484 1484 1482 1481 1480 1479 1478 1481 1486 1481 1476 1475 1473 1470 1469 1469 1469 1467 1467 1466 1465 1464 1465 1464 1462 1461 1460 1459 1454 1452 1457 1457 1458 1458 1458 1456 1457 1465 1469 1467 1465 1465 1469 1458 1445 1446 1447 1444 1443 1442 1443 1445 1443 1440 1441 1442 1440 1437 1436 1435 1436 1438 1436 1434 1432 1429 1424 1422 1423 1425 1429 1430 1432 1431 1427 1430 1433 1429 1427 1426 1429 1431 1427 1426 1425 1425 1424 1424 1424 1422 1421 1420 1417 1413 1408 1405 1404 1404 1403 1404 1404 1403 1401 1400 1400 1399 1397 1397 1393 1392 1428 1489 1500 1451 1406 1432 1488 1484 1459 1440 1427 1413 1426 1445 1426 1410 1404 1395 1393 1393 1392 1390 1389 1386 1383 1379 1378 1372 1366 1373 1380 1381 1387 1392 1399 1403 1400 1404 1406 1398 1392 1384 1375 1369 1368 1369 1366 1365 1365 1363 1361 1360 1363 1366 1364 1363 1365 1367 1364 1364 1364 1362 1359 1358 1363 1393 1440 1474 1492 1485 1476 1473 1468 1451 1439 1447 1459 1470
2335 2321 2341 2388 2465 2543 2606 2659 2679 2710 2775 2796 2736 2653 2572 2502 2430 2332 2245 2201 2175 2133 2088 2061 2054 2078 2073 2061 2072 2053 2028 2021 2036 2051 2064 2060 2047 2022 1993 1979 1964 1946 1924 1900 1877 1872 1876 1892 1915 1924 1933 1942 1954 1967 1975 1952 1924 1965 2009 2018 2031 2041 2050 2054 2062 2078 2080 2060 2032 1995 1965 1976 1977 1942 1919 1926 1931 1906 1885 1870 1865 1879 1886 1893 1885 1893 1870 1809 1778 1758 1743 1729 1723 1725 1730 1739 1744 1751 1762 1774 1788 1801 1813 1835 1868 1911 1960 2002 2034 2063 2090 2118 2147 2171 2193 2176 2127 2095 2067 2025 2008 2022 2017 1980 1917 1853 1800 1760 1734 1714 1700 1678 1660 1626 1623 1666 1705 1670 1601 1580 1558 1537 1527 1525 1531 1528 1516 1516 1503 1490 1495 1493 1495 1493 1486 1484 1488 1488 1487 1485 1481 1479 1479 1480 1484 1485 1482 1481 1479 1479 1478 1479 1480 1480 1478 1478 1480 1478 1476 1475 1473 1471 1470 1470 1471 1470 1469 1468 1466 1466 1466 1466 1465 1464 1465 1465 1464 1461 1457 1458 1458 1459 1459 1458 1455 1464 1471 1468 1467 1465 1463 1463 1463 1459 1451 1454 1458 1456 1453 1450 1449 1451 1453 1453 1446 1437 1435 1435 1435 1438 1439 1437 1435 1435 1436 1433 1428 1427 1425 1422 1420 1423 1423 1420 1418 1419 1426 1426 1423 1425 1428 1428 1426 1426 1425 1423 1418 1415 1415 1417 1415 1409 1407 1405 1405 1405 1404 1404 1404 1403 1401 1401 1401 1400 1399 1397 1402 1407 1394 1394 1434 1472 1463 1418 1416 1446 1450 1441 1434 1426 1411 1410 1417 1407 1398 1394 1394 1392 1388 1389 1386 1379 1375 1373 1374 1376 1375 1374 1374 1370 1366 1362 1369 1381 1389 1391 1394 1396 1387 1381 1373 1366 1365 1364 1364 1363 1363 1362 1361 1359 1358 1357 1358 1362 1364 1363 1366 1364 1358 1364 1366 1364 1361 1358 1365 1388 1432 1473 1483 1476 1475 1472 1456 1443 1439 1450 1463
2306 2285 2293 2319 2387 2497 2556 2577 2599 2636 2704 2750 2701 2614 2541 2487 2409 2308 2238 2198 2161 2122 2089 2059 2026 2030 2032 2016 2036 2038 2006 1987 1996 2018 2040 2046 2030 1989 1968 1970 1962 1956 1939 1917 1890 1866 1862 1868 1880 1898 1914 1924 1939 1952 1944 1914 1928 1980 1998 2003 2015 2023 2026 2029 2039 2046 2032 2011 1999 1972 1938 1947 1963 1936 1900 1896 1912 1897 1872 1858 1853 1861 1864 1870 1863 1866 1848 1801 1772 1754 1740 1733 1718 1719 1731 1732 1738 1748 1762 1775 1787 1799 1812 1833 1864 1907 1957 1996 2021 2043 2066 2098 2135 2168 2185 2153 2086 2037 2017 1987 1948 1943 1953 1942 1892 1835 1789 1755 1732 1709 1689 1680 1653 1637 1656 1687 1736 1719 1656 1618 1579 1553 1539 1529 1529 1532 1523 1511 1503 1495 1494 1494 1491 1485 1494 1508 1510 1506 1502 1501 1501 1499 1497 1497 1484 1476 1478 1479 1478 1477 1477 1477 1477 1477 1477 1476 1475 1474 1474 1472 1472 1471 1470 1470 1473 1471 1469 1471 1473 1478 1475 1466 1467 1471 1465 1461 1465 1467 1469 1462 1457 1460 1460 1459 1458 1460 1467 1469 1466 1464 1463 1465 1460 1456 1458 1457 1455 1453 1451 1455 1458 1455 1454 1455 1453 1450 1449 1447 1441 1434 1434 1434 1435 1434 1432 1432 1432 1429 1426 1426 1425 1424 1425 1425 1423 1423 1423 1422 1420 1425 1429 1428 1427 1425 1423 1418 1415 1413 1413 1412 1410 1409 1408 1408 1407 1404 1403 1403 1402 1402 1402 1402 1401 1400 1399 1398 1402 1405 1407 1395 1397 1426 1459 1434 1411 1417 1418 1418 1415 1412 1408 1400 1400 1400 1396 1396 1391 1381 1377 1380 1383 1381 1377 1375 1378 1380 1383 1388 1389 1385 1381 1379 1373 1366 1369 1372 1369 1368 1368 1367 1366 1366 1365 1363 1364 1364 1363 1361 1359 1357 1355 1355 1354 1355 1355 1355 1353 1358 1357 1356 1357 1355 1354 1353 1350 1349 1376 1432 1465 1474 1477 1472 1458 1445 1439 1444 1450
2274 2254 2252 2280 2331 2386 2459 2496 2514 2572 2649 2718 2695 2611 2540 2469 2393 2300 2243 2211 2172 2136 2105 2076 2042 2008 1991 1982 1982 1997 1988 1961 1957 1992 2016 2019 2009 1974 1949 1948 1941 1939 1942 1938 1927 1900 1872 1859 1858 1868 1889 1908 1924 1934 1906 1892 1941 1975 1978 1989 1997 1992 1988 1999 2010 2008 1988 1965 1956 1951 1918 1907 1927 1920 1886 1865 1877 1874 1855 1853 1833 1833 1843 1846 1840 1836 1825 1791 1764 1748 1737 1729 1714 1716 1726 1728 1734 1745 1760 1774 1785 1795 1808 1829 1856 1899 1947 1977 1991 2005 2030 2073 2119 2161 2181 2144 2076 2014 1964 1929 1894 1880 1895 1897 1859 1816 1782 1755 1731 1705 1693 1681 1651 1656 1682 1705 1750 1805 1756 1661 1623 1587 1556 1538 1528 1531 1530 1530 1539 1507 1486 1490 1488 1505 1519 1521 1521 1518 1515 1517 1519 1518 1517 1520 1508 1496 1496 1490 1484 1482 1483 1484 1482 1479 1480 1479 1479 1478 1477 1475 1475 1475 1474 1473 1472 1469 1467 1467 1474 1476 1473 1473 1477 1478 1477 1476 1472 1469 1470 1465 1459 1460 1461 1460 1459 1458 1464 1465 1460 1460 1458 1457 1457 1456 1457 1456 1454 1452 1458 1460 1456 1456 1455 1454 1454 1453 1452 1450 1446 1444 1437 1434 1435 1435 1433 1430 1433 1430 1426 1425 1425 1425 1424 1423 1422 1421 1423 1422 1422 1420 1417 1417 1417 1417 1417 1416 1415 1414 1413 1411 1411 1411 1409 1409 1404 1401 1403 1403 1403 1402 1401 1401 1401 1399 1399 1400 1403 1403 1402 1399 1392 1390 1403 1414 1415 1413 1408 1405 1404 1403 1401 1395 1393 1394 1394 1394 1383 1377 1380 1382 1382 1382 1382 1382 1384 1385 1387 1387 1385 1385 1385 1381 1378 1377 1369 1365 1365 1365 1364 1363 1363 1362 1363 1362 1361 1361 1362 1358 1356 1357 1357 1355 1355 1355 1353 1352 1351 1354 1353 1350 1349 1348 1347 1346 1344 1340 1342 1374 1417 1448 1462 1454 1433 1435 1450 1452 1446
2260 2228 2218 2240 2281 2322 2369 2415 2458 2523 2612 2686 2709 2650 2574 2508 2459 2380 2300 2248 2199 2153 2113 2088 2063 2034 2008 1981 1959 1949 1945 1938 1934 1954 1983 1996 1994 1965 1941 1938 1929 1924 1925 1932 1937 1935 1918 1881 1852 1848 1860 1874 1893 1906 1883 1885 1932 1950 1951 1965 1964 1952 1953 1963 1966 1953 1945 1928 1913 1916 1899 1881 1890 1892 1864 1837 1844 1849 1840 1839 1813 1807 1819 1824 1818 1810 1802 1781 1758 1744 1734 1724 1711 1714 1720 1723 1731 1742 1755 1770 1784 1793 1804 1826 1853 1889 1929 1948 1944 1955 1996 2051 2101 2148 2175 2143 2087 2040 1992 1946 1904 1868 1848 1842 1822 1798 1777 1757 1734 1707 1695 1679 1676 1686 1702 1733 1782 1855 1862 1759 1689 1641 1595 1555 1530 1526 1532 1538 1540 1540 1504 1494 1516 1525 1524 1525 1524 1520 1518 1519 1519 1515 1515 1518 1524 1526 1521 1511 1501 1500 1506 1507 1503 1500 1500 1494 1487 1481 1476 1472 1473 1473 1478 1480 1488 1490 1481 1474 1475 1480 1481 1484 1489 1490 1492 1489 1483 1480 1478 1469 1461 1460 1462 1462 1461 1463 1463 1462 1461 1460 1458 1457 1457 1456 1457 1457 1460 1461 1458 1456 1454 1455 1456 1455 1453 1452 1450 1448 1447 1448 1445 1440 1437 1437 1435 1434 1434 1431 1430 1428 1427 1426 1423 1422 1422 1421 1421 1424 1420 1419 1419 1417 1416 1417 1416 1414 1415 1413 1411 1411 1410 1409 1408 1406 1409 1414 1417 1411 1405 1402 1401 1399 1402 1406 1404 1405 1405 1403 1402 1405 1396 1393 1395 1395 1399 1403 1400 1398 1396 1390 1389 1391 1390 1392 1393 1390 1379 1380 1384 1383 1382 1382 1383 1385 1386 1385 1386 1387 1386 1385 1385 1382 1378 1377 1376 1376 1373 1369 1366 1364 1364 1363 1361 1359 1358 1358 1359 1360 1361 1360 1359 1358 1357 1355 1355 1354 1353 1352 1351 1349 1348 1348 1350 1351 1350 1350 1344 1337 1368 1412 1436 1438 1430 1435 1447 1448 1443
2278 2211 2194 2207 2242 2289 2332 2374 2425 2496 2592 2665 2722 2691 2606 2557 2513 2471 2402 2306 2226 2167 2128 2107 2094 2086 2060 2025 2000 1974 1953 1929 1909 1916 1952 1978 1975 1950 1924 1922 1919 1903 1901 1910 1916 1922 1932 1926 1893 1858 1842 1844 1852 1866 1867 1874 1902 1911 1910 1924 1918 1920 1927 1926 1920 1900 1897 1899 1885 1881 1871 1847 1853 1860 1838 1808 1815 1822 1810 1806 1792 1788 1796 1801 1796 1790 1785 1770 1752 1737 1727 1720 1709 1709 1714 1718 1725 1738 1751 1767 1779 1787 1800 1823 1847 1876 1901 1909 1907 1929 1980 2036 2080 2125 2151 2133 2095 2061 2034 2001 1951 1895 1848 1817 1799 1781 1765 1757 1736 1713 1688 1694 1700 1704 1726 1761 1810 1866 1931 1869 1754 1688 1663 1607 1549 1533 1526 1536 1540 1539 1533 1526 1527 1523 1522 1526 1526 1523 1520 1521 1520 1516 1513 1518 1522 1519 1513 1505 1503 1509 1516 1518 1503 1506 1514 1516 1518 1514 1507 1500 1483 1474 1480 1490 1497 1501 1497 1496 1499 1502 1503 1502 1500 1500 1499 1495 1494 1491 1493 1473 1460 1462 1463 1463 1462 1463 1463 1461 1460 1458 1459 1461 1463 1463 1473 1476 1471 1472 1478 1477 1466 1457 1452 1451 1451 1449 1449 1448 1448 1445 1445 1444 1441 1440 1436 1435 1434 1432 1432 1431 1430 1426 1424 1422 1423 1423 1422 1421 1420 1417 1417 1417 1416 1416 1414 1413 1412 1411 1412 1412 1411 1409 1407 1406 1416 1422 1421 1417 1410 1409 1409 1406 1409 1412 1411 1409 1408 1407 1406 1405 1397 1393 1394 1394 1394 1393 1391 1390 1390 1389 1388 1388 1387 1391 1390 1380 1379 1383 1383 1383 1386 1386 1386 1387 1385 1387 1388 1388 1387 1385 1384 1385 1380 1377 1375 1373 1372 1372 1370 1369 1368 1369 1368 1367 1367 1365 1364 1364 1362 1361 1361 1359 1357 1357 1358 1357 1355 1354 1352 1351 1350 1351 1354 1356 1355 1354 1351 1342 1346 1368 1408 1436 1439 1430 1420 1423 1428
2244 2190 2174 2183 2214 2265 2323 2387 2454 2528 2608 2662 2717 2684 2602 2532 2487 2482 2428 2332 2240 2177 2121 2087 2092 2111 2092 2053 2027 2012 1990 1952 1897 1885 1933 1962 1961 1941 1912 1903 1905 1892 1882 1888 1892 1895 1909 1928 1925 1906 1879 1855 1842 1839 1845 1852 1864 1864 1863 1875 1875 1894 1897 1881 1869 1859 1852 1850 1855 1845 1842 1831 1826 1819 1798 1783 1782 1783 1784 1785 1779 1775 1777 1779 1781 1778 1764 1743 1726 1718 1716 1714 1704 1703 1708 1714 1721 1730 1744 1760 1771 1778 1794 1814 1832 1851 1871 1871 1888 1930 1976 2019 2049 2088 2114 2111 2087 2048 2009 1973 1941 1907 1867 1827 1802 1783 1767 1753 1733 1715 1696 1700 1709 1720 1742 1779 1832 1893 1945 1924 1826 1734 1703 1645 1575 1548 1535 1526 1536 1543 1539 1532 1526 1521 1523 1526 1526 1523 1522 1519 1513 1511 1509 1514 1521 1520 1513 1502 1500 1510 1513 1515 1507 1510 1519 1522 1525 1526 1529 1518 1488 1498 1517 1516 1512 1513 1514 1519 1520 1520 1524 1523 1517 1512 1507 1504 1502 1495 1493 1472 1461 1463 1463 1463 1463 1464 1464 1463 1463 1468 1472 1481 1484 1483 1492 1491 1491 1497 1502 1497 1491 1476 1467 1455 1452 1451 1448 1445 1444 1451 1447 1444 1443 1439 1436 1435 1437 1433 1430 1429 1428 1428 1428 1423 1420 1422 1420 1418 1419 1419 1416 1415 1416 1415 1414 1413 1411 1410 1409 1409 1409 1405 1407 1408 1423 1425 1421 1424 1423 1419 1418 1417 1412 1409 1408 1407 1406 1405 1405 1408 1400 1392 1390 1390 1391 1391 1390 1389 1388 1387 1386 1385 1383 1381 1381 1390 1400 1401 1396 1394 1392 1389 1388 1387 1387 1389 1389 1388 1387 1385 1383 1383 1380 1377 1376 1374 1373 1372 1371 1369 1369 1369 1368 1371 1373 1371 1370 1370 1368 1363 1360 1360 1359 1358 1357 1357 1358 1357 1355 1355 1354 1355 1356 1356 1355 1352 1353 1350 1338 1341 1371 1413 1437 1446 1443 1417 1404
2239 2183 2155 2162 2190 2247 2305 2377 2462 2523 2583 2661 2697 2634 2575 2501 2420 2390 2404 2322 2222 2168 2118 2058 2040 2067 2083 2058 2023 1999 1979 1951 1905 1875 1918 1953 1948 1930 1903 1885 1885 1879 1863 1864 1868 1873 1888 1905 1911 1922 1931 1906 1872 1845 1832 1831 1828 1824 1824 1825 1830 1836 1833 1821 1808 1802 1803 1799 1796 1800 1805 1804 1792 1776 1764 1760 1760 1755 1757 1763 1764 1755 1760 1763 1767 1749 1722 1709 1702 1700 1700 1702 1696 1702 1704 1707 1714 1721 1733 1751 1764 1769 1782 1797 1809 1825 1843 1872 1906 1942 1965 1989 2015 2047 2075 2079 2065 2038 2002 1951 1906 1879 1857 1835 1815 1796 1780 1755 1735 1723 1710 1715 1718 1727 1754 1798 1853 1925 1960 1903 1816 1771 1741 1662 1583 1556 1546 1530 1524 1523 1526 1533 1528 1523 1523 1525 1525 1523 1520 1513 1509 1506 1505 1505 1514 1518 1508 1501 1503 1507 1505 1504 1511 1514 1514 1515 1517 1519 1525 1499 1495 1514 1522 1523 1524 1526 1528 1529 1529 1530 1533 1532 1528 1521 1514 1508 1503 1503 1481 1465 1465 1464 1463 1463 1468 1469 1471 1481 1491 1495 1493 1496 1500 1500 1501 1499 1504 1509 1510 1507 1504 1495 1488 1473 1459 1461 1464 1467 1447 1445 1448 1445 1441 1437 1439 1439 1441 1438 1430 1428 1427 1426 1425 1427 1424 1423 1420 1419 1418 1417 1416 1415 1414 1414 1413 1412 1411 1410 1408 1408 1403 1418 1423 1413 1426 1431 1429 1432 1431 1425 1425 1424 1417 1413 1410 1408 1408 1406 1405 1406 1401 1394 1392 1391 1390 1389 1389 1389 1388 1386 1386 1388 1390 1392 1409 1421 1425 1423 1414 1404 1401 1394 1389 1388 1389 1389 1389 1388 1386 1386 1385 1383 1382 1378 1376 1376 1376 1375 1373 1371 1370 1370 1375 1377 1375 1387 1402 1405 1402 1395 1377 1364 1360 1361 1358 1355 1358 1359 1359 1359 1358 1357 1356 1356 1355 1354 1353 1348 1343 1347 1346 1368 1414 1436 1442 1428 1404
2244 2175 2154 2136 2160 2209 2262 2317 2404 2476 2552 2623 2644 2595 2508 2439 2378 2314 2341 2333 2204 2125 2098 2066 2013 2008 2040 2053 2024 1993 1968 1943 1902 1863 1895 1937 1934 1920 1899 1866 1861 1857 1836 1839 1844 1855 1871 1880 1885 1900 1926 1939 1913 1873 1846 1834 1827 1822 1818 1813 1808 1804 1799 1800 1801 1798 1791 1792 1793 1782 1775 1775 1779 1781 1768 1763 1763 1760 1750 1742 1735 1732 1737 1734 1730 1716 1715 1716 1711 1700 1692 1691 1691 1693 1696 1698 1702 1710 1723 1740 1753 1758 1771 1782 1792 1815 1844 1876 1906 1930 1935 1959 1992 2028 2056 2050 2030 2013 1990 1952 1910 1868 1841 1829 1815 1798 1781 1761 1740 1732 1723 1726 1726 1740 1773 1818 1877 1940 1977 1932 1884 1808 1742 1700 1615 1566 1560 1552 1547 1536 1523 1521 1521 1522 1522 1523 1524 1523 1515 1507 1512 1514 1514 1508 1506 1509 1505 1501 1507 1513 1512 1511 1513 1516 1518 1516 1514 1516 1509 1497 1509 1519 1524 1527 1530 1532 1533 1533 1534 1534 1533 1535 1531 1520 1513 1506 1500 1485 1465 1464 1467 1466 1464 1466 1475 1483 1492 1500 1501 1499 1500 1501 1503 1503 1505 1507 1511 1514 1513 1511 1511 1508 1502 1494 1474 1468 1474 1477 1465 1448 1445 1443 1441 1441 1443 1443 1440 1441 1436 1432 1431 1428 1425 1425 1425 1424 1422 1420 1419 1417 1416 1415 1415 1415 1414 1414 1410 1421 1426 1429 1428 1441 1440 1417 1431 1440 1440 1439 1434 1431 1432 1432 1428 1424 1424 1419 1416 1411 1407 1405 1408 1404 1396 1394 1396 1396 1398 1399 1398 1394 1394 1402 1411 1428 1441 1445 1443 1441 1433 1414 1406 1398 1391 1389 1387 1387 1386 1385 1384 1385 1387 1384 1381 1382 1383 1383 1383 1384 1385 1388 1386 1387 1409 1419 1423 1430 1435 1432 1426 1420 1407 1398 1402 1386 1367 1370 1366 1362 1361 1361 1360 1359 1357 1356 1356 1355 1353 1353 1344 1344 1346 1344 1374 1416 1433 1428 1404
2260 2174 2139 2141 2132 2176 2236 2297 2375 2455 2527 2555 2566 2571 2492 2401 2339 2276 2235 2301 2221 2122 2062 2040 2007 1974 1990 2033 2020 1986 1957 1932 1911 1868 1850 1894 1916 1910 1896 1856 1851 1840 1816 1818 1821 1832 1845 1847 1861 1883 1899 1921 1927 1918 1893 1875 1867 1866 1857 1839 1832 1824 1822 1825 1829 1829 1826 1823 1816 1807 1799 1800 1799 1800 1798 1800 1786 1793 1806 1792 1771 1752 1736 1734 1733 1739 1753 1753 1736 1710 1697 1691 1688 1683 1687 1692 1695 1702 1715 1732 1740 1744 1757 1768 1781 1806 1837 1862 1885 1893 1909 1947 1987 2030 2051 2026 1989 1956 1938 1920 1901 1866 1837 1822 1809 1797 1785 1770 1755 1741 1737 1738 1741 1763 1798 1842 1895 1949 1999 1954 1874 1815 1790 1700 1634 1577 1551 1549 1545 1539 1535 1531 1524 1519 1516 1524 1522 1514 1510 1512 1516 1519 1518 1513 1508 1506 1509 1510 1511 1515 1516 1515 1515 1518 1519 1519 1518 1517 1505 1502 1511 1520 1526 1529 1531 1532 1533 1536 1537 1537 1535 1535 1531 1520 1512 1504 1495 1469 1463 1466 1466 1467 1466 1473 1483 1494 1508 1506 1501 1502 1501 1501 1502 1503 1506 1512 1515 1516 1516 1514 1511 1503 1497 1495 1488 1486 1479 1472 1472 1466 1450 1445 1445 1444 1442 1441 1440 1438 1438 1438 1436 1431 1428 1426 1424 1424 1425 1422 1419 1418 1419 1417 1417 1419 1419 1433 1462 1472 1468 1466 1460 1456 1447 1421 1429 1441 1446 1440 1436 1439 1441 1440 1437 1432 1434 1429 1424 1419 1416 1412 1415 1413 1403 1411 1422 1425 1415 1425 1442 1432 1431 1434 1445 1461 1459 1456 1456 1447 1425 1420 1421 1413 1401 1397 1392 1390 1388 1391 1394 1394 1396 1397 1397 1397 1404 1409 1415 1422 1424 1426 1418 1426 1444 1447 1449 1450 1449 1446 1444 1439 1418 1410 1392 1389 1393 1394 1382 1374 1367 1359 1358 1359 1359 1359 1358 1357 1356 1360 1349 1342 1346 1346 1345 1380 1412 1417 1403
2280 2179 2123 2115 2103 2150 2214 2278 2335 2411 2506 2487 2464 2467 2443 2400 2334 2253 2182 2194 2217 2150 2073 2017 1994 1953 1951 1984 2010 1985 1943 1914 1899 1871 1836 1870 1914 1904 1880 1846 1836 1823 1805 1806 1802 1816 1823 1834 1848 1863 1880 1894 1910 1927 1933 1935 1925 1914 1898 1878 1875 1866 1858 1864 1867 1861 1852 1849 1848 1845 1838 1841 1831 1828 1848 1849 1814 1838 1862 1856 1831 1788 1770 1770 1772 1778 1784 1782 1761 1727 1706 1695 1689 1682 1679 1686 1690 1692 1704 1720 1726 1732 1742 1755 1773 1794 1818 1839 1857 1880 1914 1955 1995 2037 2058 2029 1983 1936 1892 1869 1863 1848 1833 1822 1808 1798 1789 1778 1768 1750 1749 1752 1757 1787 1831 1875 1923 1964 2023 1975 1913 1867 1792 1737 1702 1603 1548 1549 1547 1544 1533 1526 1522 1519 1521 1519 1515 1514 1517 1523 1521 1516 1512 1512 1513 1512 1515 1514 1515 1514 1518 1520 1519 1520 1517 1516 1519 1504 1515 1512 1515 1523 1529 1532 1534 1534 1535 1537 1538 1538 1537 1536 1529 1521 1512 1507 1482 1468 1468 1468 1467 1466 1469 1483 1498 1499 1507 1510 1504 1501 1499 1500 1503 1507 1514 1518 1518 1516 1516 1513 1504 1495 1490 1488 1483 1482 1478 1472 1458 1457 1448 1445 1446 1447 1446 1444 1440 1436 1436 1437 1435 1434 1436 1431 1425 1425 1426 1434 1426 1433 1444 1436 1436 1443 1452 1462 1472 1477 1477 1475 1468 1458 1432 1435 1441 1451 1446 1443 1446 1452 1460 1461 1458 1451 1436 1432 1432 1427 1427 1435 1426 1413 1412 1441 1458 1471 1452 1462 1473 1458 1488 1481 1468 1465 1465 1466 1460 1444 1445 1444 1444 1439 1424 1419 1416 1411 1415 1424 1429 1421 1416 1424 1431 1432 1438 1445 1448 1451 1453 1453 1444 1446 1452 1451 1448 1446 1444 1440 1426 1410 1407 1411 1402 1419 1425 1415 1400 1389 1378 1376 1367 1361 1360 1361 1360 1358 1358 1361 1355 1343 1344 1346 1343 1350 1383 1404 1401
2305 2200 2122 2100 2120 2119 2177 2235 2287 2369 2493 2458 2394 2344 2332 2330 2302 2249 2173 2122 2128 2093 2068 2031 1982 1947 1921 1934 1979 1977 1935 1895 1863 1842 1825 1869 1915 1900 1868 1828 1814 1802 1790 1790 1785 1796 1800 1817 1827 1845 1859 1870 1887 1899 1923 1943 1946 1932 1917 1916 1919 1913 1905 1912 1912 1915 1898 1903 1906 1892 1884 1896 1874 1860 1885 1885 1838 1858 1899 1901 1875 1846 1826 1799 1797 1806 1810 1805 1787 1755 1723 1698 1685 1680 1676 1677 1682 1682 1692 1706 1713 1722 1733 1749 1767 1783 1798 1825 1869 1899 1934 1967 1996 2029 2067 2049 2010 1965 1911 1865 1839 1827 1821 1816 1806 1796 1781 1770 1764 1762 1764 1768 1773 1810 1860 1904 1947 1982 2039 2023 1976 1888 1822 1786 1764 1642 1566 1543 1549 1535 1536 1532 1525 1521 1521 1517 1517 1526 1527 1525 1521 1516 1512 1513 1513 1513 1519 1516 1516 1518 1520 1521 1520 1519 1517 1509 1502 1515 1515 1516 1520 1524 1529 1531 1533 1534 1535 1537 1538 1539 1540 1538 1523 1517 1516 1490 1470 1468 1469 1469 1468 1466 1481 1497 1510 1510 1500 1507 1507 1501 1499 1502 1508 1513 1521 1523 1520 1516 1515 1509 1497 1481 1472 1466 1461 1462 1458 1455 1453 1447 1453 1457 1454 1455 1457 1454 1450 1444 1440 1439 1436 1435 1435 1436 1440 1442 1450 1440 1441 1460 1469 1476 1477 1472 1471 1475 1477 1478 1477 1470 1453 1434 1432 1454 1463 1460 1451 1462 1464 1464 1471 1474 1472 1464 1449 1448 1447 1444 1434 1448 1429 1419 1425 1450 1473 1478 1470 1470 1485 1478 1490 1517 1515 1495 1484 1480 1461 1460 1466 1457 1456 1455 1451 1449 1448 1443 1445 1454 1457 1448 1437 1443 1452 1458 1458 1455 1455 1455 1455 1455 1454 1453 1455 1451 1441 1439 1432 1422 1424 1435 1442 1444 1424 1438 1442 1433 1424 1411 1393 1387 1376 1371 1365 1361 1360 1359 1359 1359 1358 1342 1342 1345 1347 1342 1358 1389 1403
2326 2236 2141 2091 2099 2125 2144 2208 2269 2357 2484 2465 2376 2293 2242 2245 2248 2244 2183 2090 2053 2044 2025 2027 2009 1972 1913 1889 1913 1961 1931 1880 1846 1813 1823 1885 1911 1885 1849 1821 1795 1778 1769 1770 1768 1775 1779 1798 1816 1820 1830 1845 1861 1872 1892 1911 1930 1938 1941 1942 1945 1945 1944 1953 1966 1970 1952 1962 1965 1947 1947 1951 1905 1896 1921 1921 1871 1877 1920 1931 1910 1886 1851 1812 1824 1843 1843 1830 1812 1793 1751 1708 1687 1682 1674 1669 1676 1678 1684 1697 1706 1716 1728 1742 1758 1771 1788 1806 1840 1878 1915 1939 1957 1998 2039 2068 2039 1997 1942 1892 1841 1818 1810 1806 1795 1784 1769 1762 1761 1768 1776 1784 1791 1826 1873 1918 1959 1999 2059 2037 1958 1884 1812 1847 1780 1656 1591 1555 1539 1548 1545 1539 1532 1530 1530 1529 1521 1523 1528 1524 1520 1516 1518 1519 1517 1518 1515 1519 1522 1523 1522 1519 1516 1514 1508 1511 1520 1518 1517 1520 1524 1527 1529 1532 1534 1535 1536 1538 1540 1542 1543 1537 1519 1514 1494 1472 1469 1471 1470 1469 1468 1464 1494 1508 1518 1515 1507 1511 1515 1508 1503 1505 1511 1516 1522 1523 1516 1509 1498 1483 1470 1466 1464 1460 1468 1473 1470 1464 1463 1460 1472 1482 1477 1478 1477 1470 1469 1466 1455 1445 1444 1443 1453 1458 1467 1466 1466 1439 1455 1471 1477 1484 1488 1486 1484 1485 1484 1482 1473 1453 1436 1439 1455 1465 1467 1458 1451 1472 1475 1470 1469 1469 1468 1467 1467 1467 1468 1467 1453 1430 1417 1435 1457 1458 1477 1483 1478 1481 1495 1507 1495 1513 1539 1539 1508 1485 1464 1498 1496 1474 1467 1465 1468 1468 1467 1458 1456 1464 1464 1461 1452 1452 1460 1463 1462 1461 1459 1458 1458 1457 1456 1454 1455 1447 1448 1455 1438 1430 1448 1448 1446 1440 1434 1441 1444 1444 1442 1431 1415 1394 1381 1373 1371 1362 1359 1359 1359 1358 1361 1340 1340 1344 1345 1346 1343 1365 1395
2313 2250 2159 2087 2078 2111 2120 2182 2241 2329 2455 2452 2372 2289 2217 2176 2188 2221 2215 2084 2013 2011 1969 1986 1992 1975 1931 1874 1867 1904 1921 1873 1832 1790 1819 1889 1893 1858 1815 1803 1788 1768 1755 1754 1754 1760 1767 1777 1787 1789 1800 1814 1828 1843 1862 1880 1896 1915 1926 1942 1956 1961 1964 1979 1994 1995 1990 2001 2011 2009 2010 1980 1942 1941 1959 1951 1903 1904 1943 1956 1940 1908 1863 1840 1865 1881 1875 1856 1838 1824 1781 1726 1696 1687 1675 1669 1670 1673 1682 1691 1710 1718 1724 1733 1746 1759 1770 1785 1808 1836 1870 1894 1919 1963 2004 2050 2041 1996 1940 1883 1837 1815 1808 1802 1790 1775 1764 1762 1764 1768 1778 1791 1803 1825 1862 1907 1946 1988 2037 2020 1954 1886 1870 1900 1785 1673 1617 1577 1549 1557 1553 1546 1534 1531 1531 1529 1524 1524 1520 1518 1517 1513 1524 1526 1522 1520 1519 1522 1525 1524 1522 1520 1516 1513 1512 1514 1515 1515 1516 1523 1526 1529 1529 1532 1533 1537 1539 1541 1544 1544 1540 1532 1516 1513 1475 1469 1470 1471 1471 1470 1469 1465 1498 1508 1512 1510 1510 1514 1519 1513 1506 1510 1514 1518 1520 1514 1502 1484 1473 1471 1469 1467 1473 1475 1477 1476 1478 1479 1477 1478 1489 1501 1500 1498 1494 1486 1479 1470 1463 1461 1463 1463 1480 1485 1475 1464 1448 1455 1482 1488 1484 1485 1487 1487 1486 1485 1483 1475 1455 1442 1447 1461 1471 1473 1469 1463 1463 1466 1471 1471 1470 1471 1474 1478 1481 1482 1483 1481 1477 1456 1427 1459 1472 1471 1487 1491 1492 1494 1506 1512 1499 1536 1539 1553 1511 1478 1480 1513 1532 1503 1484 1473 1474 1475 1470 1464 1466 1469 1468 1466 1460 1459 1465 1465 1464 1463 1462 1460 1460 1459 1458 1453 1449 1452 1446 1440 1443 1448 1449 1444 1444 1443 1443 1445 1444 1444 1444 1436 1421 1411 1399 1387 1375 1367 1359 1358 1358 1358 1358 1348 1337 1340 1342 1344 1342 1342 1369
2269 2223 2150 2080 2060 2091 2138 2153 2207 2271 2390 2456 2384 2296 2225 2145 2126 2157 2186 2058 1977 1969 1942 1937 1956 1953 1936 1900 1846 1844 1880 1870 1825 1785 1808 1854 1855 1819 1804 1793 1777 1765 1747 1738 1735 1749 1759 1759 1755 1765 1773 1777 1794 1811 1824 1834 1850 1869 1869 1889 1908 1923 1939 1964 1988 2001 2008 2026 2045 2053 2046 2016 1989 1993 1997 1978 1940 1935 1966 1979 1967 1931 1879 1869 1902 1915 1903 1880 1860 1845 1805 1748 1707 1688 1681 1669 1665 1669 1677 1688 1711 1715 1719 1723 1732 1751 1763 1772 1789 1808 1834 1862 1899 1947 1990 2029 2042 1984 1925 1867 1829 1819 1807 1804 1792 1779 1765 1762 1763 1770 1779 1791 1803 1815 1833 1859 1888 1929 1971 2012 2003 1937 1941 1946 1806 1694 1639 1597 1560 1549 1547 1541 1538 1537 1530 1528 1526 1522 1521 1521 1516 1514 1522 1524 1522 1520 1521 1523 1525 1524 1523 1521 1517 1513 1516 1517 1514 1516 1517 1521 1525 1527 1528 1530 1532 1536 1540 1543 1544 1539 1531 1527 1514 1503 1473 1471 1471 1473 1472 1471 1472 1468 1503 1506 1509 1508 1511 1512 1515 1517 1511 1515 1516 1515 1514 1498 1480 1475 1474 1474 1476 1477 1478 1482 1488 1493 1497 1500 1500 1500 1502 1508 1507 1505 1498 1492 1479 1475 1473 1479 1483 1482 1482 1488 1463 1465 1454 1479 1502 1502 1487 1482 1488 1489 1487 1480 1474 1460 1445 1454 1470 1481 1484 1484 1484 1480 1482 1465 1468 1476 1480 1479 1482 1484 1486 1487 1487 1488 1483 1449 1440 1473 1488 1492 1497 1501 1505 1509 1509 1523 1519 1522 1532 1552 1519 1483 1495 1534 1559 1540 1510 1496 1484 1478 1473 1473 1475 1473 1472 1470 1466 1465 1468 1469 1466 1464 1463 1456 1455 1453 1452 1457 1458 1451 1441 1447 1452 1447 1448 1449 1449 1449 1448 1447 1444 1441 1437 1433 1428 1425 1418 1406 1387 1373 1363 1357 1357 1358 1357 1361 1344 1337 1340 1341 1341 1340 1344
2264 2205 2133 2074 2048 2067 2115 2154 2178 2236 2335 2442 2371 2296 2231 2166 2122 2044 2061 1996 1931 1937 1932 1902 1920 1927 1922 1905 1864 1815 1809 1828 1823 1780 1794 1816 1820 1806 1793 1781 1763 1757 1738 1727 1720 1730 1743 1744 1735 1739 1741 1746 1764 1770 1780 1789 1805 1819 1835 1857 1874 1890 1899 1922 1945 1967 1987 2010 2031 2045 2055 2049 2035 2037 2033 2011 1985 1979 1995 1999 1985 1949 1886 1895 1936 1946 1927 1899 1879 1860 1823 1764 1715 1691 1685 1666 1662 1666 1670 1690 1708 1717 1721 1723 1728 1739 1754 1768 1781 1793 1809 1837 1885 1927 1959 1989 2021 1975 1917 1860 1826 1818 1807 1800 1787 1776 1763 1761 1764 1774 1784 1799 1815 1832 1840 1848 1864 1895 1932 1980 2031 2014 1995 1934 1809 1708 1644 1599 1570 1556 1553 1549 1546 1545 1539 1536 1526 1523 1520 1519 1518 1521 1521 1523 1522 1522 1525 1530 1529 1525 1523 1522 1517 1520 1520 1520 1519 1518 1518 1520 1522 1522 1527 1529 1527 1530 1537 1545 1542 1532 1522 1514 1504 1481 1474 1474 1474 1475 1473 1473 1474 1470 1501 1509 1513 1511 1514 1515 1517 1518 1516 1519 1514 1509 1495 1481 1478 1477 1477 1476 1482 1485 1494 1503 1506 1508 1512 1516 1515 1515 1513 1506 1505 1504 1497 1492 1482 1489 1489 1483 1483 1485 1479 1484 1499 1494 1485 1499 1502 1497 1489 1484 1482 1484 1481 1479 1460 1451 1455 1461 1480 1491 1492 1493 1487 1485 1473 1468 1478 1482 1484 1482 1483 1482 1481 1483 1484 1485 1460 1461 1487 1499 1502 1506 1510 1514 1520 1524 1521 1527 1534 1530 1532 1550 1522 1494 1499 1545 1581 1577 1543 1520 1510 1500 1491 1484 1487 1483 1478 1474 1473 1472 1471 1471 1472 1469 1460 1457 1463 1460 1453 1448 1447 1446 1450 1452 1453 1452 1452 1452 1451 1451 1450 1448 1446 1444 1443 1440 1440 1437 1433 1421 1404 1388 1374 1360 1357 1359 1359 1356 1359 1344 1336 1336 1337 1337 1336
2315 2241 2151 2071 2033 2044 2090 2152 2174 2239 2305 2426 2408 2334 2266 2208 2162 2032 1981 1925 1879 1889 1885 1885 1876 1892 1888 1899 1868 1836 1787 1777 1770 1759 1780 1778 1783 1789 1777 1764 1749 1741 1728 1720 1716 1710 1722 1730 1719 1719 1714 1722 1732 1737 1747 1756 1777 1798 1811 1830 1847 1861 1878 1894 1917 1937 1952 1974 1993 2010 2033 2054 2063 2075 2064 2035 2019 2016 2026 2022 2003 1961 1897 1932 1969 1970 1944 1915 1895 1867 1825 1766 1721 1695 1687 1665 1659 1662 1670 1699 1735 1753 1753 1745 1736 1731 1743 1761 1775 1789 1793 1805 1839 1877 1909 1960 2008 1971 1911 1853 1825 1818 1812 1796 1779 1765 1761 1761 1770 1784 1794 1818 1851 1886 1894 1891 1887 1893 1938 1992 2059 2050 1976 1900 1801 1712 1647 1605 1579 1565 1562 1557 1552 1547 1542 1540 1535 1533 1526 1524 1527 1529 1530 1530 1530 1528 1529 1530 1529 1527 1525 1522 1519 1520 1521 1520 1520 1521 1523 1520 1519 1517 1520 1524 1521 1519 1523 1531 1532 1525 1511 1501 1487 1474 1475 1475 1475 1475 1474 1475 1475 1473 1498 1511 1511 1512 1518 1515 1515 1515 1516 1520 1513 1500 1490 1481 1481 1480 1480 1482 1493 1501 1512 1516 1516 1516 1516 1517 1513 1510 1506 1503 1502 1497 1497 1494 1492 1493 1489 1483 1485 1496 1506 1508 1503 1498 1505 1510 1508 1502 1492 1494 1486 1474 1475 1458 1456 1462 1482 1485 1488 1493 1492 1490 1485 1482 1485 1483 1488 1488 1484 1490 1484 1486 1483 1480 1479 1474 1453 1499 1528 1540 1540 1535 1534 1535 1538 1538 1536 1537 1542 1539 1539 1544 1526 1497 1511 1535 1571 1603 1568 1550 1543 1533 1521 1505 1501 1498 1491 1483 1479 1475 1473 1468 1471 1467 1458 1465 1470 1470 1463 1459 1461 1461 1462 1460 1458 1456 1454 1453 1452 1451 1450 1450 1449 1448 1448 1447 1446 1447 1444 1437 1421 1405 1382 1368 1357 1359 1361 1355 1355 1356 1342 1339 1335 1334 1333
2339 2258 2167 2072 2019 2025 2076 2145 2222 2254 2356 2422 2389 2354 2308 2238 2178 2070 1952 1896 1861 1852 1840 1833 1827 1853 1849 1880 1868 1827 1790 1761 1744 1770 1763 1741 1749 1757 1752 1745 1737 1727 1721 1720 1722 1706 1701 1710 1703 1703 1700 1705 1707 1711 1721 1728 1750 1771 1786 1803 1814 1831 1852 1866 1891 1907 1929 1956 1976 1990 2011 2038 2058 2073 2085 2076 2057 2051 2059 2049 2022 1978 1934 1965 1994 1986 1957 1932 1912 1867 1821 1768 1726 1698 1685 1662 1656 1654 1669 1701 1743 1777 1785 1768 1750 1740 1741 1749 1765 1782 1789 1787 1799 1829 1863 1911 1965 1961 1902 1846 1824 1817 1808 1795 1774 1762 1762 1767 1781 1798 1818 1852 1882 1937 1963 1951 1940 1926 1970 2024 2079 2017 1945 1866 1783 1709 1652 1612 1587 1573 1568 1559 1559 1546 1544 1541 1538 1533 1535 1535 1535 1535 1537 1536 1535 1532 1528 1527 1525 1524 1523 1521 1520 1522 1522 1523 1524 1526 1524 1525 1523 1522 1522 1518 1522 1522 1512 1516 1521 1514 1502 1485 1477 1476 1476 1475 1475 1475 1475 1476 1474 1479 1503 1512 1511 1514 1519 1514 1512 1516 1518 1521 1513 1499 1494 1482 1483 1482 1485 1496 1508 1515 1517 1521 1521 1518 1513 1506 1501 1499 1498 1498 1497 1498 1496 1497 1493 1491 1489 1499 1508 1510 1511 1509 1510 1508 1509 1512 1512 1507 1499 1490 1481 1470 1460 1462 1469 1477 1497 1500 1494 1497 1495 1487 1492 1493 1497 1497 1498 1499 1495 1495 1492 1498 1497 1488 1481 1474 1461 1486 1529 1571 1591 1583 1569 1560 1560 1556 1550 1547 1549 1548 1555 1557 1528 1504 1528 1556 1588 1610 1610 1599 1580 1558 1541 1528 1518 1513 1506 1497 1489 1485 1485 1477 1470 1464 1465 1474 1473 1474 1472 1468 1467 1468 1467 1466 1463 1459 1457 1454 1452 1451 1451 1451 1450 1449 1448 1447 1445 1446 1444 1442 1435 1416 1390 1377 1364 1357 1361 1356 1354 1354 1353 1351 1340 1337 1336
2298 2233 2150 2062 2005 2012 2065 2135 2214 2265 2371 2397 2286 2272 2278 2242 2180 2104 1980 1954 1913 1879 1839 1778 1795 1823 1826 1853 1846 1811 1780 1760 1737 1759 1781 1733 1721 1725 1728 1736 1730 1724 1726 1721 1709 1702 1681 1698 1694 1690 1687 1694 1693 1697 1701 1705 1723 1743 1761 1780 1793 1808 1831 1849 1872 1899 1912 1930 1958 1973 1992 2017 2040 2055 2069 2091 2107 2102 2101 2076 2041 2010 1981 2002 2011 1991 1967 1953 1939 1882 1832 1781 1734 1699 1678 1655 1652 1652 1667 1701 1746 1778 1813 1805 1778 1758 1748 1750 1760 1768 1778 1782 1786 1803 1824 1859 1900 1923 1893 1837 1813 1804 1795 1790 1775 1763 1768 1777 1794 1818 1846 1893 1929 1975 2020 2018 2000 1973 2005 2056 2053 1989 1921 1840 1765 1705 1658 1623 1596 1582 1572 1568 1561 1557 1545 1542 1539 1538 1540 1539 1539 1536 1536 1537 1534 1531 1527 1525 1524 1522 1522 1523 1524 1525 1526 1525 1526 1527 1526 1530 1531 1529 1531 1529 1523 1521 1518 1508 1505 1508 1505 1479 1477 1478 1477 1476 1477 1476 1477 1477 1476 1493 1510 1512 1513 1516 1518 1513 1511 1516 1517 1516 1509 1496 1489 1484 1484 1486 1497 1510 1519 1522 1526 1527 1524 1521 1507 1498 1495 1496 1495 1501 1499 1508 1507 1498 1498 1498 1502 1514 1515 1516 1516 1515 1514 1516 1513 1513 1512 1506 1496 1480 1467 1466 1472 1479 1485 1485 1493 1503 1502 1508 1493 1496 1503 1502 1500 1501 1504 1501 1499 1496 1502 1505 1505 1499 1486 1480 1464 1491 1529 1553 1591 1620 1612 1595 1589 1582 1573 1564 1560 1557 1566 1561 1526 1521 1551 1580 1618 1645 1640 1628 1594 1571 1551 1547 1538 1529 1521 1513 1506 1504 1500 1492 1488 1484 1476 1475 1476 1477 1475 1472 1472 1472 1470 1468 1466 1463 1460 1455 1454 1452 1451 1449 1448 1449 1449 1445 1437 1436 1433 1434 1436 1430 1406 1384 1372 1361 1363 1359 1357 1355 1350 1350 1343 1337 1335
2243 2201 2136 2053 1992 2002 2055 2126 2203 2289 2359 2389 2259 2186 2183 2197 2178 2160 2070 2017 1943 1896 1853 1800 1759 1797 1801 1819 1814 1792 1768 1753 1730 1746 1771 1749 1727 1722 1716 1722 1717 1717 1709 1704 1691 1688 1669 1676 1676 1672 1670 1674 1672 1677 1684 1695 1704 1721 1739 1759 1772 1791 1813 1838 1854 1872 1888 1908 1933 1952 1969 1990 2013 2034 2054 2075 2101 2120 2142 2103 2068 2046 2035 2050 2027 2000 1982 1980 1966 1898 1842 1793 1741 1698 1672 1649 1651 1650 1668 1705 1747 1790 1834 1843 1816 1787 1771 1765 1764 1766 1766 1770 1776 1791 1799 1819 1848 1873 1868 1818 1794 1784 1782 1782 1775 1766 1775 1785 1801 1836 1869 1923 1969 2018 2046 2071 2064 2032 2054 2065 2003 1947 1890 1808 1749 1702 1661 1633 1598 1585 1573 1572 1561 1560 1555 1551 1549 1546 1544 1539 1538 1538 1536 1535 1533 1532 1529 1527 1525 1524 1526 1528 1526 1526 1527 1527 1526 1530 1530 1532 1539 1536 1539 1540 1536 1531 1526 1514 1501 1490 1487 1478 1479 1479 1478 1477 1478 1477 1478 1478 1480 1502 1512 1516 1516 1516 1515 1512 1510 1509 1506 1506 1500 1496 1486 1487 1488 1496 1507 1521 1527 1526 1524 1523 1518 1506 1499 1500 1508 1505 1503 1502 1511 1520 1521 1515 1516 1517 1517 1515 1520 1521 1521 1520 1520 1521 1520 1518 1516 1504 1487 1468 1480 1496 1496 1501 1498 1494 1491 1498 1501 1500 1493 1503 1505 1502 1501 1502 1503 1507 1505 1508 1514 1514 1509 1500 1485 1477 1471 1482 1509 1540 1571 1605 1635 1644 1624 1606 1595 1581 1572 1567 1570 1560 1525 1535 1591 1620 1640 1653 1649 1633 1611 1590 1568 1571 1560 1546 1536 1528 1521 1514 1509 1501 1495 1489 1483 1480 1478 1476 1476 1475 1475 1474 1470 1469 1468 1466 1463 1459 1455 1453 1450 1444 1440 1431 1431 1427 1414 1409 1405 1405 1405 1408 1402 1391 1377 1370 1365 1363 1359 1357 1355 1349 1347 1340 1337
