ncols 106
nrows 68
xllcorner -1620000
yllcorner 438000
cellsize 100
NODATA_value -9999
2232 2237 2222 2239 2304 2351 2366 2338 2331 2319 2308 2256 2247 2265 2282 2263 2232 2264 2336 2331 2327 2311 2345 2345 2371 2394 2440 2480 2519 2610 2658 2703 2664 2631 2594 2566 2571 2582 2559 2594 2587 2584 2579 2613 2579 2532 2497 2516 2520 2534 2528 2549 2583 2647 2685 2708 2717 2659 2620 2591 2516 2457 2474 2528 2529 2479 2451 2489 2526 2554 2539 2443 2411 2377 2357 2346 2315 2279 2249 2250 2270 2304 2394 2470 2507 2529 2520 2525 2528 2532 2538 2546 2521 2534 2552 2578 2649 2670 2695 2680 2626 2605 2583 2542 2534 2532
2260 2262 2240 2255 2298 2349 2392 2351 2325 2321 2318 2285 2279 2280 2297 2284 2282 2307 2378 2360 2366 2346 2365 2365 2389 2408 2436 2484 2527 2590 2631 2678 2628 2596 2570 2554 2525 2526 2495 2540 2550 2573 2598 2560 2527 2501 2468 2494 2488 2503 2498 2516 2540 2595 2628 2666 2727 2720 2686 2637 2561 2552 2598 2617 2502 2454 2417 2446 2470 2506 2527 2440 2404 2366 2316 2304 2285 2264 2227 2226 2251 2313 2355 2397 2426 2453 2438 2429 2433 2436 2491 2502 2472 2489 2511 2543 2608 2637 2668 2742 2707 2685 2656 2652 2632 2613
2322 2316 2284 2262 2311 2346 2388 2360 2331 2327 2322 2305 2318 2304 2320 2307 2294 2321 2399 2382 2389 2368 2386 2430 2428 2451 2457 2478 2546 2576 2616 2680 2631 2579 2541 2524 2502 2482 2448 2466 2497 2527 2587 2547 2511 2489 2448 2445 2438 2436 2460 2487 2503 2552 2581 2624 2674 2757 2728 2675 2570 2562 2592 2572 2479 2442 2407 2377 2378 2398 2431 2441 2395 2361 2309 2292 2275 2258 2218 2204 2225 2279 2317 2352 2382 2408 2401 2386 2392 2396 2423 2429 2389 2415 2446 2504 2560 2590 2625 2729 2768 2758 2736 2758 2729 2704
2348 2344 2322 2310 2348 2374 2396 2393 2342 2324 2318 2340 2340 2334 2346 2333 2317 2338 2425 2404 2405 2399 2416 2464 2457 2474 2472 2488 2544 2573 2623 2674 2610 2564 2508 2458 2498 2452 2418 2421 2448 2486 2553 2544 2497 2469 2419 2410 2417 2438 2459 2471 2466 2518 2556 2585 2665 2730 2721 2637 2530 2522 2551 2483 2459 2426 2392 2353 2346 2360 2389 2438 2395 2359 2310 2294 2278 2262 2220 2193 2195 2242 2275 2308 2340 2361 2363 2346 2349 2361 2387 2391 2355 2389 2421 2486 2512 2527 2562 2661 2716 2754 2759 2818 2813 2800
2373 2367 2362 2374 2384 2392 2399 2430 2390 2350 2340 2354 2356 2360 2365 2361 2344 2433 2473 2457 2417 2422 2435 2478 2505 2496 2502 2502 2549 2602 2661 2633 2565 2535 2494 2435 2401 2375 2370 2368 2378 2404 2510 2524 2484 2451 2394 2393 2397 2424 2444 2460 2465 2507 2540 2573 2656 2717 2659 2574 2472 2479 2496 2497 2453 2420 2385 2343 2333 2333 2387 2416 2397 2356 2309 2295 2274 2240 2216 2193 2164 2179 2203 2230 2246 2271 2278 2309 2308 2324 2354 2352 2323 2362 2396 2454 2477 2499 2535 2635 2678 2685 2694 2725 2765 2769
2424 2419 2424 2424 2402 2405 2410 2448 2424 2383 2364 2372 2380 2380 2372 2364 2349 2432 2482 2489 2471 2468 2463 2495 2561 2572 2544 2531 2567 2626 2630 2530 2521 2513 2468 2416 2376 2344 2341 2344 2350 2365 2431 2456 2468 2459 2376 2375 2384 2398 2422 2440 2460 2491 2529 2564 2678 2701 2639 2551 2456 2446 2440 2474 2457 2414 2386 2334 2308 2290 2304 2374 2396 2366 2310 2296 2273 2228 2209 2189 2169 2152 2167 2191 2221 2228 2247 2248 2233 2269 2283 2244 2275 2336 2365 2418 2442 2471 2566 2623 2639 2616 2645 2688 2719 2704
2453 2456 2468 2448 2444 2442 2442 2474 2458 2433 2388 2389 2393 2395 2384 2376 2358 2426 2471 2513 2505 2490 2495 2511 2566 2589 2621 2606 2628 2652 2597 2523 2493 2498 2444 2403 2360 2328 2323 2323 2330 2338 2394 2413 2410 2377 2367 2366 2369 2385 2393 2412 2466 2497 2545 2573 2693 2668 2604 2525 2435 2427 2405 2423 2447 2414 2375 2313 2286 2261 2276 2301 2347 2383 2315 2287 2261 2214 2198 2185 2168 2127 2138 2148 2181 2192 2213 2216 2200 2233 2238 2221 2257 2287 2317 2364 2392 2429 2525 2578 2603 2554 2601 2643 2677 2592
2483 2490 2500 2472 2466 2462 2478 2484 2478 2457 2438 2427 2426 2426 2422 2414 2405 2418 2465 2509 2534 2513 2526 2545 2583 2595 2590 2577 2624 2642 2592 2517 2478 2430 2399 2348 2318 2284 2258 2301 2310 2319 2360 2375 2359 2328 2343 2353 2364 2381 2395 2417 2477 2524 2572 2592 2629 2579 2522 2426 2405 2419 2389 2385 2410 2422 2330 2283 2258 2249 2250 2270 2307 2363 2317 2279 2257 2206 2186 2178 2166 2134 2111 2091 2133 2149 2170 2175 2170 2200 2200 2204 2236 2262 2292 2338 2371 2414 2504 2545 2515 2452 2503 2525 2550 2484
2625 2539 2540 2502 2490 2487 2503 2504 2499 2481 2458 2446 2446 2446 2443 2435 2422 2435 2473 2517 2577 2569 2565 2577 2590 2574 2550 2575 2603 2615 2578 2493 2450 2417 2387 2347 2315 2282 2239 2239 2251 2272 2291 2283 2289 2306 2326 2341 2357 2377 2397 2420 2504 2542 2545 2554 2596 2568 2512 2404 2390 2377 2360 2342 2322 2336 2358 2276 2253 2250 2227 2243 2270 2346 2311 2268 2243 2200 2181 2169 2149 2134 2116 2095 2070 2073 2080 2084 2109 2125 2156 2187 2214 2241 2267 2316 2355 2398 2478 2496 2463 2408 2454 2476 2506 2449
2690 2648 2628 2592 2559 2546 2547 2526 2521 2514 2489 2479 2475 2463 2459 2450 2439 2461 2487 2538 2617 2596 2551 2528 2530 2507 2484 2550 2549 2524 2556 2476 2445 2418 2369 2347 2319 2292 2231 2222 2226 2269 2262 2252 2267 2298 2316 2334 2358 2369 2393 2430 2517 2519 2522 2531 2562 2549 2495 2400 2386 2366 2350 2317 2304 2298 2354 2293 2254 2241 2207 2192 2205 2271 2299 2260 2235 2199 2178 2166 2143 2130 2118 2101 2060 2048 2052 2055 2073 2081 2070 2153 2174 2184 2241 2275 2319 2380 2435 2433 2402 2362 2396 2425 2471 2415
2740 2699 2663 2638 2611 2579 2569 2577 2581 2586 2581 2557 2529 2499 2474 2465 2460 2486 2509 2560 2631 2584 2542 2500 2498 2494 2470 2530 2541 2508 2489 2480 2439 2406 2361 2337 2328 2296 2229 2208 2204 2236 2234 2237 2252 2293 2314 2332 2377 2386 2414 2436 2464 2483 2493 2501 2517 2532 2484 2401 2382 2358 2316 2302 2289 2268 2330 2319 2264 2237 2204 2175 2175 2228 2267 2293 2300 2247 2222 2200 2168 2130 2118 2104 2072 2053 2031 2026 2033 2037 2054 2130 2149 2150 2209 2250 2289 2324 2347 2321 2293 2258 2304 2404 2400 2370
2800 2756 2673 2682 2685 2632 2595 2603 2607 2601 2600 2575 2545 2516 2495 2495 2533 2565 2596 2649 2597 2553 2507 2483 2471 2458 2449 2514 2540 2507 2479 2458 2419 2383 2361 2327 2301 2267 2215 2205 2196 2186 2212 2225 2243 2283 2309 2344 2391 2417 2427 2412 2429 2455 2466 2478 2500 2522 2499 2423 2396 2344 2289 2265 2246 2242 2300 2331 2294 2223 2198 2170 2149 2187 2223 2256 2313 2293 2273 2255 2209 2165 2142 2103 2087 2068 2048 1995 1994 1999 2030 2099 2112 2115 2177 2214 2249 2281 2310 2260 2238 2220 2268 2327 2290 2218
2733 2717 2637 2666 2722 2710 2624 2627 2623 2612 2609 2580 2556 2533 2510 2516 2580 2610 2640 2641 2520 2492 2475 2434 2403 2395 2421 2501 2533 2507 2448 2410 2377 2357 2357 2313 2281 2231 2219 2201 2192 2170 2175 2195 2221 2265 2297 2322 2375 2418 2406 2385 2400 2423 2436 2468 2492 2524 2518 2446 2403 2347 2279 2248 2239 2224 2232 2272 2309 2233 2193 2154 2132 2150 2183 2212 2271 2284 2280 2288 2263 2222 2181 2122 2095 2070 2050 1989 1939 1925 1993 2005 2034 2040 2144 2176 2217 2238 2255 2227 2176 2185 2235 2293 2249 2156
2683 2672 2605 2635 2675 2721 2710 2673 2651 2627 2605 2576 2560 2525 2500 2494 2574 2606 2615 2599 2524 2484 2463 2422 2400 2392 2416 2469 2504 2497 2425 2386 2348 2336 2325 2298 2273 2233 2219 2197 2181 2160 2157 2171 2235 2253 2274 2294 2354 2381 2361 2358 2357 2379 2420 2474 2499 2529 2526 2450 2399 2340 2265 2243 2234 2211 2194 2228 2271 2239 2194 2147 2110 2085 2099 2117 2160 2183 2230 2242 2262 2252 2218 2138 2108 2074 2048 1990 1945 1903 1948 1957 1990 2002 2091 2122 2157 2128 2116 2124 2122 2149 2204 2227 2163 2107
2647 2647 2590 2613 2638 2730 2749 2699 2662 2626 2596 2567 2534 2446 2419 2433 2493 2564 2555 2552 2531 2481 2463 2421 2389 2381 2403 2445 2479 2485 2408 2381 2340 2306 2306 2291 2276 2246 2225 2203 2182 2154 2142 2149 2216 2238 2258 2275 2334 2359 2343 2340 2344 2354 2394 2463 2481 2472 2440 2429 2385 2327 2255 2236 2226 2171 2158 2184 2232 2247 2200 2156 2084 2063 2060 2069 2094 2126 2126 2132 2162 2153 2150 2114 2096 2066 2041 1988 1947 1897 1900 1923 1959 1975 2062 2093 2121 2084 2051 2061 2030 2073 2083 2062 2047 2045
2592 2613 2577 2597 2618 2698 2745 2725 2672 2618 2587 2562 2471 2418 2385 2403 2444 2442 2467 2439 2421 2420 2422 2384 2374 2364 2401 2429 2462 2468 2391 2357 2313 2289 2292 2285 2275 2246 2228 2210 2191 2155 2126 2108 2147 2179 2235 2256 2313 2337 2333 2315 2324 2328 2359 2414 2437 2424 2381 2382 2384 2337 2252 2212 2184 2140 2129 2126 2196 2251 2215 2167 2087 2060 2031 2023 2033 2064 2074 2098 2113 2108 2092 2071 2042 2009 1960 1932 1902 1865 1824 1889 1910 1952 2021 2043 2062 2027 1993 2004 1978 2028 2022 2001 1977 1956
2560 2554 2536 2557 2571 2634 2690 2704 2670 2620 2581 2554 2449 2405 2365 2373 2398 2397 2421 2397 2371 2371 2379 2358 2329 2325 2347 2371 2416 2437 2368 2332 2302 2288 2285 2283 2276 2243 2229 2210 2175 2151 2122 2096 2121 2151 2183 2242 2267 2293 2310 2277 2291 2292 2316 2368 2400 2401 2324 2329 2358 2352 2262 2213 2173 2130 2112 2102 2119 2186 2203 2166 2075 2033 1995 1977 1978 2008 2026 2036 2056 2060 2042 2015 2001 1977 1907 1888 1863 1831 1789 1817 1855 1909 1923 1939 1951 1970 1938 1933 1956 1957 1956 1953 1900 1878
2536 2495 2510 2543 2542 2574 2636 2652 2602 2575 2571 2519 2409 2372 2354 2352 2351 2353 2372 2365 2335 2329 2327 2325 2295 2295 2331 2359 2408 2428 2350 2329 2318 2290 2282 2275 2273 2243 2228 2209 2172 2148 2117 2087 2098 2124 2155 2218 2247 2271 2292 2270 2243 2229 2251 2279 2313 2338 2243 2279 2312 2315 2277 2222 2168 2112 2087 2082 2094 2151 2165 2144 2058 2022 1979 1932 1879 1892 1918 1920 1940 2006 1992 1949 1942 1928 1870 1842 1827 1803 1754 1790 1817 1855 1869 1883 1891 1871 1830 1821 1855 1840 1832 1902 1835 1814
2520 2473 2487 2520 2503 2536 2570 2603 2547 2545 2547 2488 2396 2361 2335 2323 2285 2280 2274 2299 2311 2309 2298 2284 2270 2279 2318 2363 2418 2421 2342 2330 2321 2295 2283 2274 2263 2231 2213 2200 2163 2139 2106 2083 2076 2100 2126 2196 2222 2247 2266 2258 2223 2203 2209 2229 2267 2285 2208 2187 2185 2252 2243 2202 2144 2090 2066 2063 2085 2109 2118 2104 2029 1993 1958 1869 1829 1843 1867 1871 1893 1892 1862 1851 1831 1815 1790 1769 1785 1768 1727 1761 1773 1802 1819 1831 1827 1811 1785 1777 1795 1789 1774 1767 1746 1714
2488 2437 2438 2450 2475 2521 2550 2592 2530 2530 2539 2487 2394 2360 2327 2312 2264 2239 2237 2272 2264 2260 2239 2240 2253 2277 2346 2375 2424 2381 2353 2340 2326 2300 2283 2270 2238 2214 2189 2180 2147 2125 2091 2060 2031 2045 2060 2126 2155 2213 2233 2223 2193 2173 2161 2183 2215 2226 2169 2143 2132 2186 2189 2159 2113 2053 2030 2008 2001 2010 2010 2007 1984 1949 1920 1847 1797 1793 1817 1821 1845 1840 1812 1805 1787 1767 1747 1731 1705 1666 1667 1682 1683 1705 1766 1775 1763 1750 1741 1728 1735 1726 1717 1709 1698 1681
2443 2427 2425 2450 2466 2513 2551 2569 2489 2485 2501 2484 2390 2350 2316 2302 2250 2212 2201 2245 2247 2233 2229 2231 2256 2281 2369 2418 2459 2455 2423 2391 2368 2315 2298 2270 2223 2198 2178 2160 2125 2108 2075 2032 2018 2017 2029 2084 2114 2136 2146 2137 2100 2079 2074 2089 2156 2166 2125 2113 2087 2123 2126 2096 2067 2021 2000 1974 1958 1953 1941 1939 1893 1860 1824 1781 1747 1709 1769 1773 1787 1781 1758 1749 1732 1723 1693 1680 1669 1639 1629 1641 1646 1654 1666 1673 1640 1640 1647 1645 1671 1665 1661 1645 1647 1644
2413 2423 2426 2437 2486 2515 2547 2546 2477 2468 2476 2400 2368 2333 2299 2280 2233 2200 2182 2215 2221 2205 2221 2216 2258 2291 2390 2437 2461 2474 2451 2433 2420 2390 2351 2295 2215 2183 2164 2146 2118 2092 2068 2033 2012 2000 2003 2036 2067 2089 2094 2094 2071 2038 2029 2039 2023 2044 2024 2015 1991 1992 2062 2039 1992 1975 1951 1935 1904 1906 1894 1866 1847 1817 1783 1736 1713 1683 1673 1674 1684 1681 1652 1641 1633 1675 1638 1629 1620 1606 1605 1602 1603 1605 1617 1616 1600 1594 1612 1612 1573 1571 1572 1560 1546 1548
2405 2422 2432 2442 2486 2513 2537 2521 2455 2445 2449 2384 2362 2328 2295 2260 2223 2186 2162 2165 2171 2161 2167 2209 2261 2362 2408 2441 2449 2452 2441 2432 2432 2397 2356 2308 2221 2196 2177 2153 2116 2098 2080 2033 2013 1996 1978 1996 2022 2038 2048 2047 2037 2006 1984 1985 1964 1984 1972 1982 1946 1931 1929 1923 1892 1883 1860 1841 1800 1854 1851 1799 1795 1777 1738 1686 1674 1652 1635 1635 1634 1633 1607 1596 1587 1565 1563 1556 1557 1566 1573 1581 1568 1570 1582 1570 1565 1568 1582 1578 1549 1546 1550 1535 1531 1533
2402 2412 2439 2455 2482 2504 2500 2484 2428 2423 2431 2367 2354 2324 2299 2251 2214 2184 2150 2143 2143 2141 2157 2201 2255 2341 2377 2398 2400 2385 2421 2418 2403 2385 2360 2339 2247 2222 2196 2146 2124 2102 2084 2025 2000 1985 1935 1922 1941 1959 1973 1962 1936 1978 1932 1941 1922 1914 1920 1951 1914 1874 1869 1864 1847 1827 1813 1795 1756 1743 1733 1707 1684 1661 1639 1645 1634 1622 1601 1600 1590 1586 1570 1561 1552 1545 1546 1546 1553 1557 1558 1556 1543 1540 1536 1536 1537 1557 1565 1551 1542 1534 1533 1532 1531 1531
2394 2399 2440 2460 2471 2487 2489 2484 2395 2378 2388 2346 2337 2303 2283 2226 2205 2182 2136 2121 2117 2119 2140 2178 2216 2303 2341 2364 2353 2338 2337 2337 2329 2309 2293 2267 2221 2249 2228 2176 2147 2117 2086 2015 1988 1969 1936 1909 1904 1916 1938 1925 1891 1849 1829 1832 1820 1791 1790 1889 1845 1829 1809 1809 1788 1776 1763 1751 1715 1704 1693 1676 1655 1624 1593 1567 1564 1570 1569 1561 1550 1550 1546 1545 1544 1544 1544 1544 1551 1549 1550 1548 1541 1541 1541 1542 1537 1537 1537 1535 1534 1533 1533 1532 1530 1530
2391 2402 2444 2459 2451 2468 2472 2431 2389 2370 2359 2323 2330 2285 2245 2221 2206 2184 2128 2104 2089 2100 2125 2160 2191 2269 2306 2329 2305 2293 2293 2287 2281 2264 2248 2229 2175 2153 2135 2112 2116 2105 2061 2014 1982 1956 1930 1902 1880 1881 1897 1883 1850 1794 1782 1778 1767 1745 1740 1756 1756 1738 1719 1703 1683 1682 1716 1696 1677 1667 1658 1643 1619 1595 1557 1550 1551 1553 1557 1554 1547 1546 1545 1544 1544 1544 1544 1541 1547 1545 1543 1542 1543 1545 1544 1540 1538 1540 1543 1550 1548 1546 1547 1549 1550 1554
2447 2458 2453 2447 2422 2439 2446 2431 2398 2374 2333 2290 2298 2263 2240 2216 2197 2175 2134 2104 2070 2060 2086 2108 2130 2215 2235 2291 2252 2251 2247 2241 2236 2229 2216 2177 2147 2122 2099 2077 2076 2076 2045 1958 1931 1908 1877 1860 1838 1814 1851 1828 1806 1749 1737 1729 1714 1706 1690 1701 1703 1695 1676 1661 1639 1635 1634 1615 1607 1605 1594 1564 1586 1567 1549 1548 1549 1549 1552 1552 1549 1546 1546 1545 1545 1543 1542 1541 1542 1541 1541 1541 1541 1546 1538 1547 1553 1557 1562 1574 1575 1577 1582 1581 1585 1590
2514 2474 2443 2439 2421 2399 2406 2447 2408 2361 2290 2263 2260 2234 2224 2211 2191 2170 2130 2104 2060 2043 2059 2081 2098 2178 2198 2206 2180 2170 2161 2155 2147 2140 2179 2140 2114 2089 2067 2039 2039 2034 1982 1946 1910 1886 1843 1826 1802 1784 1775 1749 1713 1672 1663 1658 1665 1667 1662 1652 1654 1655 1642 1624 1601 1591 1591 1580 1575 1574 1571 1552 1552 1551 1551 1549 1549 1549 1549 1548 1547 1547 1547 1546 1546 1546 1546 1544 1551 1556 1552 1562 1553 1566 1568 1603 1611 1618 1631 1653 1658 1616 1626 1623 1633 1632
2525 2464 2429 2430 2415 2392 2393 2429 2394 2341 2229 2225 2200 2161 2144 2166 2174 2151 2121 2083 2046 2020 2034 2056 2077 2132 2151 2159 2145 2132 2123 2116 2100 2092 2083 2056 2036 2025 2011 1965 2000 1994 1952 1924 1895 1862 1814 1788 1766 1742 1736 1719 1685 1647 1634 1627 1610 1605 1601 1595 1569 1573 1583 1584 1570 1564 1560 1557 1555 1554 1554 1552 1552 1551 1550 1551 1550 1550 1548 1548 1549 1551 1552 1560 1576 1561 1565 1562 1583 1593 1592 1601 1585 1598 1599 1629 1645 1661 1679 1696 1705 1713 1725 1725 1731 1735
2470 2427 2410 2415 2411 2386 2380 2409 2372 2303 2219 2211 2182 2133 2114 2142 2149 2092 2048 2028 2006 1993 1992 2011 2071 2093 2105 2111 2107 2097 2087 2077 2054 2041 2029 2008 1987 1977 1970 1935 1932 1927 1874 1850 1827 1801 1741 1757 1733 1705 1695 1682 1662 1623 1612 1603 1595 1584 1578 1573 1560 1565 1571 1560 1558 1554 1557 1555 1555 1554 1554 1553 1553 1551 1551 1550 1549 1550 1553 1557 1565 1571 1578 1595 1623 1637 1643 1643 1669 1671 1672 1632 1628 1633 1637 1668 1682 1704 1730 1745 1757 1765 1772 1785 1794 1790
2438 2401 2391 2363 2375 2373 2358 2360 2342 2273 2211 2191 2165 2115 2092 2111 2112 2064 2033 2012 1974 1971 1969 1976 2001 2010 2021 2024 2032 2024 2019 2031 2016 1995 1980 1958 1942 1928 1908 1890 1891 1884 1816 1794 1777 1732 1706 1673 1652 1641 1629 1619 1609 1611 1596 1584 1583 1570 1566 1563 1559 1562 1563 1559 1557 1557 1557 1556 1557 1556 1556 1555 1558 1561 1578 1556 1562 1572 1584 1593 1596 1607 1619 1637 1662 1676 1685 1689 1713 1711 1718 1724 1723 1728 1741 1752 1758 1771 1792 1796 1799 1815 1838 1853 1855 1841
2419 2389 2383 2349 2363 2360 2338 2336 2320 2290 2192 2157 2115 2069 2037 2067 2063 2039 2011 1985 1940 1940 1926 1927 1958 1966 1975 1983 1992 1987 1979 1960 1940 1921 1907 1856 1841 1880 1850 1837 1841 1843 1768 1745 1731 1692 1668 1643 1624 1615 1609 1596 1583 1573 1567 1565 1564 1563 1561 1563 1560 1560 1559 1558 1557 1564 1567 1566 1569 1567 1582 1583 1591 1595 1619 1634 1642 1664 1676 1683 1684 1695 1663 1679 1704 1714 1731 1743 1759 1755 1761 1769 1775 1781 1793 1789 1791 1800 1877 1898 1894 1909 1955 1984 1909 1890
2407 2376 2374 2342 2348 2334 2319 2324 2306 2300 2189 2139 2096 2022 2002 2008 2004 1963 1920 1881 1838 1898 1875 1876 1908 1916 1921 1932 1940 1938 1928 1907 1885 1866 1865 1811 1789 1780 1758 1748 1735 1728 1685 1660 1689 1662 1642 1623 1610 1590 1585 1582 1567 1566 1566 1565 1565 1564 1564 1571 1570 1567 1569 1587 1597 1614 1587 1592 1606 1616 1630 1627 1636 1653 1668 1680 1693 1715 1722 1723 1718 1723 1744 1762 1790 1802 1822 1840 1802 1797 1805 1819 1825 1829 1839 1827 1828 1840 1920 1949 1946 1953 2012 2039 2034 2014
2365 2353 2351 2318 2307 2296 2304 2314 2293 2293 2177 2119 2075 1996 1961 1967 1963 1906 1869 1829 1785 1783 1781 1788 1805 1809 1812 1828 1883 1882 1875 1849 1828 1816 1794 1772 1751 1738 1719 1703 1693 1676 1651 1633 1623 1615 1606 1603 1609 1594 1594 1584 1575 1573 1572 1570 1573 1570 1568 1584 1583 1582 1601 1628 1638 1651 1671 1686 1710 1740 1724 1716 1684 1700 1714 1729 1741 1774 1770 1764 1747 1743 1768 1791 1828 1845 1865 1888 1888 1892 1890 1897 1932 1927 1898 1863 1863 1882 1954 1993 2001 2039 2098 2108 2123 2085
2348 2347 2342 2306 2293 2270 2272 2274 2261 2225 2121 2064 2044 1955 1910 1916 1895 1845 1815 1783 1741 1742 1742 1756 1760 1761 1763 1773 1777 1778 1782 1756 1739 1734 1744 1727 1709 1696 1677 1663 1664 1641 1629 1617 1615 1620 1621 1617 1619 1609 1610 1611 1608 1600 1601 1604 1588 1584 1588 1605 1609 1613 1646 1679 1687 1703 1724 1743 1766 1805 1783 1783 1798 1819 1823 1832 1846 1867 1857 1801 1772 1763 1782 1808 1865 1886 1907 1945 1939 1943 1955 1946 1987 1976 1921 1897 1896 1922 2007 2055 2102 2076 2142 2199 2199 2163
2329 2336 2328 2299 2282 2258 2250 2253 2234 2117 2060 2019 1968 1861 1820 1799 1787 1742 1763 1742 1712 1714 1716 1719 1716 1715 1714 1720 1727 1728 1728 1707 1700 1699 1678 1663 1652 1645 1632 1632 1629 1623 1620 1634 1633 1636 1635 1632 1632 1625 1623 1631 1623 1619 1621 1620 1632 1644 1666 1667 1668 1700 1777 1744 1741 1753 1772 1802 1826 1860 1859 1851 1852 1890 1882 1891 1904 1910 1883 1846 1789 1799 1823 1858 1941 1931 1955 2002 1997 1992 2020 1999 2030 2012 1946 1913 1915 1941 2030 2075 2127 2184 2221 2261 2308 2309
2302 2302 2307 2286 2257 2241 2234 2229 2198 2078 1995 1966 1919 1817 1781 1767 1735 1713 1706 1703 1701 1700 1703 1717 1704 1683 1683 1681 1682 1683 1679 1677 1672 1668 1654 1644 1641 1637 1632 1635 1643 1652 1649 1671 1678 1675 1679 1654 1655 1650 1644 1649 1644 1642 1649 1644 1656 1671 1693 1701 1710 1735 1820 1838 1850 1869 1853 1891 1935 1921 1919 1911 1920 1948 1943 1943 1969 1938 1887 1845 1797 1813 1837 1930 1987 2039 2083 2134 2113 2111 2118 2110 2074 2036 1967 1928 1933 1963 2040 2081 2141 2242 2282 2298 2341 2362
2288 2287 2254 2219 2205 2203 2184 2167 2112 2021 1951 1914 1873 1781 1748 1745 1717 1713 1724 1718 1725 1729 1735 1756 1749 1728 1711 1692 1683 1679 1675 1661 1659 1656 1655 1650 1647 1640 1639 1649 1663 1677 1677 1679 1709 1709 1705 1709 1713 1712 1710 1709 1720 1676 1682 1678 1688 1699 1716 1745 1761 1769 1863 1887 1898 1914 1896 1926 1976 2034 2049 2047 2052 2069 2065 2052 1976 1922 1875 1839 1807 1829 1862 1953 2004 2070 2137 2183 2157 2165 2188 2171 2125 2071 1996 1963 1961 2039 2068 2112 2156 2284 2327 2356 2428 2435
2280 2283 2226 2196 2186 2174 2151 2117 2060 1935 1870 1837 1800 1744 1725 1726 1724 1743 1753 1750 1763 1773 1780 1803 1807 1776 1755 1723 1717 1717 1710 1710 1719 1713 1710 1716 1706 1679 1656 1666 1680 1701 1702 1702 1743 1744 1738 1741 1752 1747 1744 1761 1774 1769 1769 1771 1783 1783 1817 1833 1817 1818 1897 1929 1947 1965 1946 1964 2007 2100 2107 2112 2115 2129 2106 2057 1937 1891 1858 1832 1837 1868 1883 1984 2039 2098 2164 2235 2219 2220 2236 2207 2151 2090 2013 1985 1978 2065 2111 2153 2199 2312 2374 2424 2461 2439
2274 2268 2206 2188 2173 2132 2113 2051 2010 1898 1847 1812 1749 1734 1738 1752 1787 1805 1837 1903 1915 1917 1869 1872 1870 1837 1802 1772 1769 1768 1758 1763 1767 1749 1745 1746 1729 1715 1718 1728 1736 1745 1746 1751 1779 1779 1770 1771 1800 1794 1793 1812 1834 1835 1835 1833 1840 1840 1875 1867 1913 1922 1935 1977 2028 2086 1996 1994 2034 2148 2180 2179 2178 2162 2114 2051 1938 1895 1859 1843 1857 1891 1940 2060 2117 2164 2221 2323 2321 2266 2243 2209 2160 2109 2045 2005 1999 2079 2127 2161 2208 2308 2360 2412 2460 2437
2233 2210 2152 2134 2104 2013 2046 2002 1963 1873 1826 1791 1743 1743 1757 1771 1818 1854 1893 1966 1970 1970 1967 1957 1948 1929 1889 1879 1820 1816 1808 1804 1802 1782 1780 1777 1769 1761 1759 1759 1766 1774 1782 1775 1827 1826 1828 1849 1887 1900 1850 1867 1895 1910 1900 1900 1906 1898 1922 1915 1943 1965 1953 1986 2049 2132 2097 2090 2093 2192 2262 2273 2203 2165 2112 2050 1947 1900 1875 1877 1888 1916 1970 2089 2155 2206 2312 2358 2358 2334 2260 2225 2182 2095 2061 2022 2029 2084 2119 2159 2249 2297 2347 2394 2456 2431
2197 2171 2115 2094 2054 1966 1940 1911 1879 1821 1797 1776 1748 1761 1775 1795 1853 1889 1927 2003 2010 2010 2009 1999 1991 1978 1954 1940 1932 1923 1908 1899 1894 1875 1818 1815 1815 1813 1800 1790 1799 1810 1814 1796 1828 1838 1854 1899 1909 1929 1937 1973 1990 2008 2028 2028 2036 1964 1969 1971 1984 2006 1978 2008 2066 2165 2139 2139 2140 2233 2288 2286 2196 2138 2093 2052 1966 1945 1930 1911 1919 1954 2016 2123 2175 2225 2315 2359 2378 2354 2272 2232 2187 2100 2072 2065 2072 2103 2124 2146 2212 2260 2329 2381 2451 2433
2150 2111 2087 2052 2005 1929 1894 1868 1819 1796 1789 1795 1803 1818 1841 1864 1912 1945 1979 2031 2048 2062 2066 2063 2047 2038 2016 1990 1978 1975 1953 1942 1938 1929 1909 1901 1935 1917 1892 1865 1861 1838 1832 1814 1829 1857 1883 1929 1937 1957 1973 2017 2036 2057 2091 2092 2081 2051 2045 2072 2082 2042 2045 2030 2086 2197 2195 2202 2212 2265 2306 2298 2202 2148 2098 2007 1974 1961 1957 1955 1970 2005 2046 2093 2118 2144 2275 2330 2380 2367 2283 2229 2178 2097 2084 2082 2083 2120 2123 2144 2208 2248 2296 2343 2424 2422
2091 2031 1992 2002 1960 1904 1858 1837 1800 1792 1806 1811 1833 1855 1881 1927 1947 1977 2013 2112 2157 2182 2192 2187 2173 2117 2079 2049 2035 2019 1994 1979 1976 1969 1959 1962 1983 1971 1930 1895 1868 1867 1854 1834 1839 1876 1930 1952 1972 1984 2006 2048 2069 2092 2131 2137 2114 2086 2100 2122 2129 2073 2081 2088 2117 2242 2283 2316 2304 2348 2319 2306 2210 2156 2104 2022 1996 1989 1989 1973 1994 2028 2079 2105 2112 2131 2226 2282 2344 2313 2267 2219 2172 2110 2119 2104 2101 2141 2125 2137 2201 2239 2280 2317 2398 2395
2053 1987 1949 1919 1898 1838 1829 1820 1827 1809 1822 1834 1875 1899 1930 1966 1990 2019 2056 2169 2216 2246 2276 2257 2234 2223 2191 2162 2150 2114 2088 2025 2014 2016 2026 2029 2038 2005 1953 1911 1870 1870 1862 1845 1841 1877 1925 1990 2007 2027 2048 2092 2117 2140 2163 2170 2150 2129 2155 2173 2172 2111 2112 2115 2137 2256 2313 2358 2363 2368 2343 2311 2217 2161 2112 2052 2019 2013 2012 2000 2023 2055 2108 2132 2129 2132 2199 2263 2325 2326 2276 2222 2198 2176 2159 2147 2187 2180 2155 2134 2192 2221 2254 2335 2378 2393
2007 1945 1915 1898 1885 1868 1853 1845 1876 1907 1936 1960 1988 2003 2023 2055 2025 2049 2104 2210 2257 2301 2330 2287 2259 2237 2231 2232 2229 2156 2141 2112 2086 2138 2150 2126 2066 2016 1963 1915 1867 1866 1866 1853 1845 1877 1920 2019 2023 2046 2087 2111 2136 2159 2210 2231 2212 2207 2239 2246 2202 2142 2142 2147 2218 2269 2322 2379 2380 2349 2322 2294 2209 2155 2116 2082 2063 2051 2037 2021 2056 2106 2197 2157 2146 2140 2195 2257 2317 2324 2268 2233 2220 2182 2165 2157 2217 2198 2196 2203 2211 2208 2227 2285 2333 2385
1966 1912 1899 1897 1903 1894 1880 1880 1916 1948 1974 2012 2031 2048 2060 2096 2092 2121 2203 2249 2303 2353 2386 2324 2283 2259 2291 2284 2253 2196 2171 2143 2121 2202 2185 2141 2058 2013 1957 1911 1864 1855 1858 1849 1852 1881 1924 2033 2048 2065 2104 2130 2156 2180 2233 2254 2245 2240 2273 2255 2213 2195 2207 2231 2298 2339 2374 2390 2358 2311 2283 2243 2199 2152 2121 2107 2083 2067 2017 2023 2055 2101 2231 2230 2203 2176 2209 2261 2314 2338 2280 2241 2224 2186 2171 2172 2253 2227 2230 2224 2229 2227 2237 2279 2317 2373
1929 1925 1925 1925 1926 1931 1913 1923 1948 1971 1995 2030 2062 2091 2108 2126 2114 2138 2220 2271 2324 2371 2416 2377 2346 2353 2333 2300 2265 2223 2190 2171 2200 2240 2190 2140 2042 1997 1948 1880 1867 1857 1855 1854 1868 1895 1919 2017 2069 2090 2138 2148 2175 2200 2254 2281 2277 2283 2297 2259 2239 2231 2248 2268 2317 2364 2402 2420 2321 2293 2279 2234 2202 2151 2138 2127 2105 2095 2024 2030 2066 2115 2249 2269 2240 2197 2221 2267 2306 2375 2320 2266 2225 2211 2205 2221 2280 2263 2267 2239 2239 2242 2252 2279 2318 2373
1949 1952 1952 1953 1944 1954 1972 1990 2015 2033 2053 2100 2097 2137 2151 2135 2138 2155 2235 2287 2342 2393 2448 2410 2381 2354 2313 2295 2281 2240 2214 2215 2275 2230 2170 2127 2020 1974 1933 1880 1866 1860 1856 1860 1885 1922 1955 2003 2049 2094 2149 2177 2201 2262 2289 2319 2333 2322 2309 2281 2275 2285 2308 2307 2339 2383 2421 2424 2352 2324 2307 2259 2244 2253 2220 2159 2149 2138 2077 2080 2092 2129 2254 2306 2291 2216 2224 2262 2296 2369 2317 2275 2240 2229 2242 2268 2355 2358 2345 2303 2287 2276 2258 2287 2318 2373
1978 1988 1991 1988 1981 1998 2019 2041 2052 2077 2095 2130 2149 2184 2187 2170 2195 2229 2319 2323 2377 2442 2498 2456 2422 2342 2305 2299 2290 2234 2228 2252 2273 2201 2142 2080 1982 1939 1907 1875 1871 1861 1856 1870 1900 1947 1957 1984 2024 2071 2154 2182 2209 2274 2300 2332 2353 2382 2367 2363 2356 2376 2413 2390 2362 2404 2449 2428 2394 2371 2350 2304 2291 2258 2185 2170 2169 2163 2109 2113 2138 2174 2297 2352 2337 2263 2229 2255 2294 2363 2325 2306 2269 2258 2279 2327 2399 2405 2387 2347 2337 2320 2301 2312 2333 2370
2005 2036 2067 2032 2030 2048 2059 2076 2104 2122 2141 2169 2193 2231 2211 2204 2226 2260 2347 2380 2407 2511 2496 2433 2396 2338 2315 2299 2269 2249 2253 2254 2226 2176 2111 2051 1971 1932 1908 1877 1876 1868 1864 1914 1953 1993 2003 1989 2010 2053 2141 2179 2211 2277 2305 2336 2366 2407 2410 2412 2400 2413 2441 2439 2425 2461 2498 2448 2413 2388 2389 2322 2279 2241 2202 2197 2197 2182 2136 2138 2163 2262 2323 2379 2366 2301 2299 2300 2370 2424 2391 2346 2300 2285 2317 2387 2447 2457 2441 2391 2374 2352 2324 2326 2350 2387
2018 2041 2075 2099 2138 2171 2187 2215 2215 2157 2183 2204 2238 2273 2237 2244 2257 2291 2384 2406 2429 2516 2503 2435 2400 2343 2323 2306 2287 2293 2256 2211 2179 2137 2081 1994 1962 1930 1906 1885 1882 1871 1904 1940 1984 2018 2023 2012 2013 2068 2110 2163 2211 2276 2306 2339 2366 2414 2439 2451 2440 2450 2466 2492 2480 2502 2509 2420 2383 2347 2324 2285 2262 2255 2273 2272 2243 2201 2163 2174 2198 2281 2361 2414 2398 2340 2334 2327 2390 2431 2364 2328 2326 2352 2387 2512 2521 2515 2509 2412 2390 2364 2341 2347 2378 2417
2028 2055 2070 2135 2167 2203 2217 2237 2239 2234 2230 2245 2267 2297 2291 2312 2307 2334 2404 2431 2468 2537 2523 2461 2404 2355 2343 2337 2279 2259 2219 2181 2135 2106 2063 1989 1958 1934 1908 1891 1884 1881 1932 1969 2012 2044 2050 2037 2027 2064 2099 2156 2204 2272 2301 2327 2384 2412 2443 2476 2497 2466 2480 2536 2540 2529 2486 2394 2357 2338 2321 2292 2274 2280 2329 2302 2259 2232 2202 2233 2265 2379 2434 2441 2422 2369 2354 2347 2413 2410 2354 2329 2346 2377 2408 2543 2568 2555 2536 2473 2440 2420 2414 2424 2435 2453
2054 2078 2085 2147 2186 2225 2241 2250 2253 2249 2245 2263 2284 2307 2312 2333 2359 2424 2457 2497 2540 2540 2518 2467 2391 2367 2343 2316 2242 2213 2177 2141 2111 2085 2051 1987 1957 1934 1916 1898 1901 1908 1982 2025 2067 2070 2073 2060 2049 2073 2099 2145 2195 2270 2302 2329 2376 2409 2440 2471 2529 2531 2553 2572 2520 2481 2433 2379 2349 2335 2316 2301 2299 2310 2370 2307 2272 2217 2229 2264 2295 2412 2477 2503 2436 2419 2399 2383 2432 2436 2366 2353 2369 2399 2427 2556 2616 2599 2580 2523 2485 2465 2465 2462 2436 2425
2121 2119 2152 2195 2234 2241 2258 2259 2264 2266 2270 2285 2316 2325 2322 2347 2374 2437 2475 2521 2568 2553 2504 2434 2326 2292 2271 2231 2172 2175 2144 2093 2081 2053 2026 1972 1945 1925 1913 1920 1919 1936 2015 2056 2093 2135 2112 2109 2105 2104 2125 2137 2184 2263 2296 2326 2368 2402 2434 2467 2535 2563 2602 2554 2503 2453 2425 2390 2375 2361 2359 2331 2372 2375 2336 2296 2282 2236 2252 2286 2319 2450 2514 2535 2456 2445 2416 2413 2447 2477 2447 2436 2438 2464 2502 2625 2660 2640 2574 2555 2532 2513 2482 2456 2416 2395
2139 2147 2178 2240 2251 2251 2264 2290 2277 2286 2315 2343 2340 2327 2320 2346 2381 2457 2498 2542 2590 2584 2518 2442 2307 2261 2219 2192 2140 2118 2089 2044 2030 2005 1968 1943 1925 1911 1936 1958 1951 1980 2045 2087 2126 2165 2138 2134 2132 2119 2130 2141 2201 2238 2279 2315 2362 2386 2426 2499 2539 2568 2593 2527 2482 2453 2433 2413 2395 2401 2412 2396 2370 2346 2308 2300 2298 2281 2298 2332 2341 2467 2530 2560 2492 2464 2438 2440 2467 2508 2495 2482 2488 2502 2568 2624 2621 2621 2537 2496 2456 2437 2438 2415 2390 2376
2160 2184 2223 2260 2265 2257 2281 2307 2297 2299 2345 2355 2341 2329 2371 2403 2442 2520 2554 2569 2622 2565 2497 2436 2279 2235 2195 2161 2114 2091 2057 2014 1998 1973 1938 1917 1921 1943 2013 2039 2057 2063 2066 2119 2156 2207 2172 2156 2153 2134 2140 2161 2197 2231 2269 2304 2358 2380 2408 2487 2527 2559 2564 2516 2483 2475 2440 2432 2431 2461 2421 2400 2384 2341 2317 2307 2312 2307 2317 2349 2390 2493 2549 2602 2586 2574 2488 2483 2504 2548 2554 2520 2552 2559 2574 2568 2549 2562 2524 2488 2439 2395 2372 2341 2306 2292
2186 2222 2256 2273 2275 2268 2289 2315 2308 2327 2364 2354 2338 2350 2395 2422 2448 2516 2557 2608 2556 2504 2441 2371 2238 2194 2177 2103 2081 2058 2023 1982 1969 1957 1944 1937 1951 1980 2046 2079 2094 2087 2144 2157 2178 2248 2242 2207 2173 2152 2157 2181 2201 2238 2268 2295 2341 2367 2399 2479 2523 2558 2569 2545 2537 2536 2498 2495 2518 2528 2427 2403 2396 2357 2349 2341 2340 2328 2343 2379 2450 2516 2579 2636 2654 2635 2596 2525 2518 2522 2535 2550 2522 2531 2532 2523 2489 2502 2498 2458 2427 2383 2316 2303 2274 2251
2215 2227 2256 2280 2290 2291 2323 2327 2336 2371 2370 2349 2341 2371 2407 2429 2450 2497 2541 2585 2513 2465 2401 2327 2216 2176 2140 2059 2036 2008 1995 1984 1972 1970 1963 1974 2003 2045 2111 2150 2157 2131 2157 2166 2180 2254 2256 2219 2185 2189 2192 2199 2233 2240 2273 2292 2331 2356 2388 2473 2517 2555 2580 2585 2581 2565 2532 2567 2574 2555 2458 2429 2426 2451 2449 2406 2371 2349 2374 2424 2506 2582 2636 2693 2640 2613 2573 2491 2473 2477 2490 2497 2479 2437 2426 2432 2387 2374 2400 2427 2386 2325 2280 2242 2232 2211
2254 2242 2271 2282 2295 2297 2326 2332 2345 2389 2367 2359 2364 2382 2406 2427 2447 2495 2545 2552 2452 2406 2347 2286 2196 2160 2123 2048 2023 2006 1994 2000 2014 2025 2058 2078 2116 2164 2239 2214 2215 2164 2169 2177 2198 2250 2253 2232 2200 2203 2212 2205 2251 2259 2271 2315 2334 2358 2379 2453 2496 2553 2615 2629 2616 2580 2574 2625 2611 2583 2503 2486 2478 2441 2419 2391 2379 2388 2425 2492 2620 2661 2681 2702 2600 2560 2537 2456 2431 2432 2443 2460 2425 2401 2360 2372 2361 2316 2338 2340 2311 2239 2222 2201 2165 2127
2274 2257 2280 2296 2307 2309 2322 2332 2353 2388 2377 2378 2378 2393 2407 2436 2493 2530 2522 2486 2360 2312 2274 2216 2180 2141 2098 2035 2009 1995 1992 2034 2068 2062 2098 2125 2163 2226 2296 2321 2295 2234 2215 2202 2207 2243 2254 2242 2219 2223 2230 2223 2261 2276 2279 2327 2347 2363 2383 2441 2480 2524 2616 2661 2695 2690 2667 2664 2633 2567 2526 2496 2470 2419 2406 2393 2382 2405 2447 2525 2652 2681 2626 2595 2547 2498 2443 2380 2358 2342 2396 2417 2380 2354 2308 2310 2315 2280 2265 2282 2258 2194 2178 2181 2147 2087
2327 2302 2308 2323 2330 2331 2343 2329 2355 2402 2390 2392 2392 2408 2423 2453 2504 2492 2471 2435 2334 2285 2255 2189 2154 2113 2085 2011 1992 1992 2014 2054 2104 2116 2141 2176 2216 2335 2357 2372 2326 2269 2256 2232 2229 2283 2287 2268 2267 2270 2275 2265 2269 2290 2291 2346 2370 2382 2385 2434 2465 2503 2596 2647 2697 2715 2658 2592 2561 2495 2482 2461 2458 2439 2424 2409 2402 2430 2486 2563 2671 2652 2597 2538 2519 2464 2408 2345 2319 2305 2334 2332 2298 2276 2239 2200 2257 2202 2199 2222 2210 2149 2134 2142 2114 2050
2349 2331 2326 2341 2344 2347 2359 2357 2360 2458 2452 2448 2451 2433 2454 2487 2462 2439 2422 2411 2328 2271 2238 2172 2143 2108 2075 1999 1992 1992 2034 2081 2113 2142 2218 2259 2266 2403 2427 2403 2356 2304 2290 2283 2273 2300 2324 2291 2299 2294 2297 2291 2299 2294 2317 2367 2389 2404 2396 2426 2465 2507 2584 2635 2689 2698 2618 2561 2525 2487 2477 2465 2456 2437 2428 2431 2466 2514 2583 2645 2641 2601 2566 2470 2476 2453 2393 2307 2279 2269 2293 2289 2249 2237 2192 2176 2139 2122 2084 2081 2075 2057 2040 2073 2042 2019
2360 2355 2346 2352 2356 2367 2372 2369 2366 2465 2510 2508 2547 2565 2514 2468 2393 2379 2382 2392 2314 2264 2228 2156 2137 2107 2057 1994 1992 1993 2042 2089 2113 2143 2239 2292 2336 2414 2478 2477 2437 2385 2329 2337 2302 2312 2342 2327 2327 2316 2316 2309 2309 2295 2311 2369 2386 2404 2420 2439 2449 2478 2563 2616 2678 2644 2597 2564 2536 2505 2492 2481 2462 2456 2455 2458 2505 2572 2633 2666 2589 2538 2471 2398 2355 2370 2361 2270 2239 2229 2243 2251 2207 2186 2132 2137 2108 2071 2047 2021 2020 1997 1977 1956 1932 1914
2388 2382 2376 2375 2368 2377 2378 2378 2375 2452 2493 2543 2601 2546 2472 2424 2378 2360 2364 2337 2311 2277 2245 2164 2137 2086 2010 1996 1993 1996 2052 2095 2119 2192 2248 2303 2351 2428 2496 2542 2496 2424 2412 2409 2407 2391 2379 2374 2363 2344 2330 2328 2310 2302 2308 2375 2402 2417 2447 2462 2476 2506 2558 2608 2629 2643 2665 2652 2628 2584 2563 2512 2510 2500 2505 2505 2561 2611 2641 2593 2546 2503 2445 2349 2307 2313 2287 2237 2179 2133 2141 2135 2115 2116 2093 2062 2059 2012 1994 1966 1958 1942 1920 1894 1874 1862
2408 2397 2388 2387 2390 2395 2395 2396 2392 2443 2472 2518 2590 2523 2449 2407 2368 2362 2361 2294 2276 2266 2254 2173 2131 2074 2016 2013 2014 2012 2071 2119 2145 2192 2246 2299 2341 2426 2503 2563 2510 2455 2434 2419 2444 2413 2383 2392 2416 2401 2383 2374 2349 2383 2376 2389 2415 2444 2489 2496 2506 2527 2586 2616 2581 2585 2629 2643 2639 2626 2610 2613 2546 2524 2530 2523 2482 2557 2572 2524 2495 2456 2419 2318 2262 2254 2253 2212 2161 2097 2089 2082 2062 2022 1994 1969 1937 1898 1883 1873 1897 1878 1861 1839 1819 1810
2430 2405 2402 2398 2401 2405 2404 2404 2424 2443 2452 2477 2571 2535 2473 2420 2366 2364 2350 2279 2264 2253 2247 2172 2122 2068 2040 2034 2032 2029 2100 2131 2149 2186 2219 2253 2296 2398 2454 2548 2593 2514 2462 2435 2445 2432 2389 2410 2423 2427 2411 2383 2361 2399 2422 2430 2453 2487 2589 2589 2601 2583 2611 2602 2551 2541 2557 2570 2582 2607 2610 2571 2508 2480 2475 2473 2433 2422 2439 2432 2381 2359 2333 2263 2228 2201 2201 2169 2126 2071 2039 2023 2013 1970 1936 1911 1885 1848 1836 1826 1801 1778 1763 1750 1728 1720
2460 2420 2415 2408 2409 2413 2416 2415 2424 2439 2451 2467 2558 2568 2513 2404 2375 2352 2329 2272 2264 2271 2231 2172 2112 2066 2052 2050 2049 2050 2122 2137 2162 2217 2221 2244 2273 2382 2434 2492 2612 2650 2571 2517 2471 2449 2420 2415 2445 2450 2433 2394 2380 2407 2440 2446 2468 2499 2625 2654 2649 2583 2549 2517 2474 2449 2447 2439 2534 2569 2590 2568 2464 2435 2423 2409 2386 2368 2372 2372 2346 2305 2262 2226 2168 2120 2086 2068 2042 1998 1984 1970 1963 1925 1894 1862 1836 1809 1794 1785 1765 1738 1722 1715 1709 1706
