ncols	539
nrows	35
xllcorner	-1620000
yllcorner	466600
cellsize	100
NODATA_value	-9999
-9999	-9999	-9999	-9999	-9999	-9999	-9999	-9999	-9999	-9999	-9999	-9999	-9999	-9999	-9999	-9999	-9999	-9999	-9999	-9999	-9999	-9999	-9999	-9999	-9999	-9999	-9999	-9999	-9999	-9999	-9999	-9999	-9999	-9999	-9999	-9999	-9999	-9999	-9999	-9999	1519	1548	1571	1574	1540	1510	1477	1434	1355	1302	1253	1201	1086	1021	952	815	745	693	649	607	608	609	619	642	666	696	773	824	859	942	977	996	1024	1105	1136	1170	1252	1304	1363	1408	1517	1587	1652	1788	1838	1875	1919	2010	2049	2142	2217	2176	2121	2067	1972	1925	1883	1805	1784	1750	1713	1643	1622	1587	1508	1494	1484	1474	1440	1408	1387	1384	1382	1376	1376	1398	1423	1460	1544	1579	1591	1577	1566	1566	1566	1566	1583	1606	1629	1678	1719	1769	1800	1878	1918	1949	2024	2057	2084	2101	2105	2125	2149	2156	2141	2126	2104	2062	2047	2056	2066	2070	2082	2090	2140	2145	2142	2148	2158	2173	2215	2279	2254	2188	2128	2102	2074	2043	2012	2013	2009	2001	2006	2017	2018	2069	2091	2118	2188	2258	2347	2347	2331	2320	2306	2270	2258	2266	2304	2429	2523	2564	2541	2509	2482	2455	2374	2350	2322	2297	2235	2230	2226	2220	2216	2202	2220	2235	2249	2236	2211	2169	2125	2110	2095	2089	2080	2075	2064	2068	2070	2093	2107	2113	2110	2116	2117	2101	2052	2008	1942	1918	1919	1936	1986	2110	1973	1881	1810	1788	1753	1728	1712	1753	1750	1743	1748	1768	1804	1889	1963	2030	1967	1895	1842	1804	1740	1725	1725	1697	1689	1637	1629	1632	1625	1634	1660	1707	1798	1813	1727	1682	1642	1582	1559	1535	1504	1477	1480	1494	1492	1416	1338	1346	1309	1267	1213	1151	1042	1003	977	962	952	936	919	895	872	853	830	817	806	808	813	850	853	899	950	990	1013	1070	1101	1139	1208	1250	1237	1199	1194	1179	1106	875	831	774	724	660	655	655	661	671	681	689	738	779	823	907	980	1050	1139	1343	1472	1534	1662	1714	1727	1816	1695	1626	1569	1486	1422	1364	1335	1235	1213	1183	1106	1081	1068	1036	960	930	901	856	821	809	796	728	688	650	592	568	568	568	568	568	568	568	568	568	568	598	647	709	758	851	902	952	1010	1056	1107	1176	1250	1300	1338	1407	1428	1439	1450	1461	1442	1442	1403	1388	1375	1363	1339	1327	1312	1287	1276	1264	1251	1183	1166	1153	1113	1095	1069	1035	1006	996	979	920	892	873	860	812	778	745	701	718	751	768	820	840	864	946	984	1017	1039	1040	1090	1133	1162	1217	1261	1284	1261	1221	1219	1257	1417	1490	1554	1629	1658	1717	1788	1909	1964	2003	2065	2078	2100	2082	1976	1944	1907	1851	1843	1831	1799	1768	1764	1754	1718	1699	1688	1687	1668	1653	1638	1622	1619	1592	1562	1534	1508	1472	1359	1313	1263	1214	1157	1170	1196	1252	1258	1310	1330	1433	1462	1479	1542	1596	1657	1712	1803	1807	1813	1925	1989	2055	2130	2160	2099	2059	2047	2043	2108	2167	2254	2311	2381	2269	2226	2182	2147	2098	2066	2038	2017	1963	1952	1947	1918	1902	1869	1832	1747
-9999	-9999	-9999	-9999	-9999	-9999	-9999	-9999	-9999	-9999	-9999	-9999	-9999	-9999	-9999	-9999	-9999	-9999	-9999	-9999	-9999	-9999	-9999	-9999	-9999	-9999	-9999	-9999	-9999	-9999	-9999	-9999	-9999	-9999	-9999	-9999	-9999	-9999	-9999	-9999	1509	1541	1556	1558	1526	1500	1462	1420	1328	1271	1207	1092	1029	991	925	802	744	693	615	606	607	606	619	640	666	740	783	841	897	993	1032	1066	1091	1125	1157	1202	1286	1305	1342	1379	1481	1550	1609	1725	1772	1813	1860	1952	2009	2057	2151	2165	2100	2053	1960	1908	1868	1795	1768	1729	1692	1617	1592	1557	1473	1463	1456	1440	1398	1372	1356	1317	1304	1293	1291	1317	1341	1416	1501	1534	1553	1563	1571	1566	1566	1566	1567	1587	1612	1681	1729	1785	1880	1916	1954	1994	2101	2147	2124	2146	2159	2200	2214	2189	2156	2124	2086	2019	2004	1997	2009	2019	2030	2041	2056	2056	2058	2074	2081	2092	2179	2244	2234	2180	2097	2063	2045	2003	1966	1965	1965	1959	1960	1974	1974	1996	2027	2062	2166	2252	2256	2302	2304	2287	2262	2217	2206	2236	2267	2407	2530	2574	2558	2522	2495	2471	2397	2375	2344	2293	2264	2249	2237	2197	2215	2205	2244	2255	2268	2268	2240	2207	2158	2118	2110	2116	2110	2109	2122	2125	2121	2150	2154	2157	2134	2140	2140	2132	2089	2040	1964	1947	1953	1979	2060	2135	1997	1907	1844	1815	1794	1786	1766	1775	1779	1788	1797	1806	1827	1889	1936	2012	1941	1889	1850	1820	1765	1757	1756	1725	1724	1723	1712	1710	1704	1716	1729	1724	1809	1807	1714	1679	1650	1603	1584	1553	1527	1514	1522	1536	1504	1474	1470	1456	1374	1283	1218	1112	1057	1017	1001	1004	1003	999	971	939	917	894	857	834	819	809	802	800	802	819	832	843	877	952	1059	1092	1160	1200	1210	1130	1150	1117	1027	838	779	744	703	659	656	667	695	708	718	730	789	803	851	952	1034	1116	1211	1457	1561	1617	1768	1766	1817	1851	1732	1653	1607	1493	1429	1384	1344	1305	1271	1205	1125	1104	1093	1065	977	965	912	847	835	823	805	734	700	662	582	568	568	568	568	568	568	568	568	568	568	584	631	692	740	835	880	923	993	1033	1081	1128	1231	1276	1317	1388	1419	1446	1458	1469	1459	1455	1417	1402	1393	1381	1357	1344	1331	1305	1297	1284	1266	1226	1208	1184	1134	1106	1094	1056	1042	1027	1011	954	926	897	882	840	809	781	716	701	716	732	767	781	795	858	894	927	954	1004	1066	1088	1143	1173	1213	1240	1214	1178	1182	1345	1420	1493	1552	1640	1684	1705	1751	1797	1853	1910	2034	2056	2081	2045	2011	1980	1935	1868	1849	1840	1812	1769	1757	1745	1726	1720	1720	1719	1717	1699	1672	1639	1655	1633	1591	1555	1523	1482	1375	1323	1272	1217	1139	1150	1177	1200	1212	1244	1282	1340	1380	1404	1477	1559	1619	1681	1772	1802	1810	1906	1979	2051	2121	2127	2070	2033	2014	2012	2023	2070	2174	2233	2294	2276	2218	2178	2149	2098	2075	2054	1975	1928	1902	1885	1859	1849	1830	1755	1712
-9999	-9999	-9999	-9999	-9999	-9999	-9999	-9999	-9999	-9999	-9999	-9999	-9999	-9999	-9999	-9999	-9999	-9999	-9999	-9999	-9999	-9999	-9999	-9999	-9999	-9999	-9999	-9999	-9999	-9999	-9999	-9999	-9999	-9999	-9999	-9999	-9999	-9999	-9999	-9999	1502	1535	1541	1537	1505	1482	1440	1400	1312	1257	1187	1051	991	936	882	777	729	684	620	606	606	607	623	646	672	750	799	859	918	1021	1060	1093	1144	1164	1188	1222	1336	1383	1420	1490	1478	1523	1574	1681	1728	1780	1873	1920	1972	2022	2133	2149	2083	2036	1949	1901	1856	1776	1738	1700	1658	1585	1566	1527	1449	1442	1432	1405	1362	1344	1326	1288	1269	1260	1267	1308	1339	1378	1467	1511	1566	1621	1685	1586	1571	1566	1567	1587	1622	1698	1741	1794	1893	1936	1982	2012	2125	2188	2230	2302	2348	2390	2365	2321	2211	2140	2035	2007	1991	1974	1961	1965	1971	1999	2007	2006	2003	2030	2035	2048	2146	2154	2171	2148	2052	2016	2014	1970	1926	1915	1922	1913	1910	1936	1934	1959	1999	2041	2176	2228	2225	2239	2243	2216	2181	2112	2113	2184	2236	2406	2509	2565	2576	2548	2524	2488	2421	2394	2365	2300	2274	2263	2258	2240	2238	2257	2288	2295	2298	2291	2275	2243	2202	2139	2136	2141	2139	2142	2147	2148	2168	2179	2176	2176	2191	2196	2205	2209	2179	2110	2000	1981	2003	2035	2180	2140	2014	1937	1871	1851	1836	1820	1809	1801	1795	1812	1827	1846	1864	1920	1962	2014	1970	1899	1866	1840	1799	1793	1775	1744	1741	1746	1756	1756	1753	1751	1762	1784	1826	1806	1726	1703	1679	1618	1600	1574	1558	1547	1556	1568	1551	1530	1517	1498	1370	1290	1216	1113	1072	1057	1064	1101	1120	1126	1031	1012	984	944	892	874	859	825	812	802	800	800	806	812	859	884	924	967	1018	1070	1094	1004	1084	1029	956	784	742	715	667	657	659	677	713	730	742	760	820	861	906	1019	1110	1232	1352	1448	1558	1672	1842	1826	1868	1865	1757	1684	1630	1513	1453	1406	1365	1323	1273	1231	1205	1163	1129	1083	1041	982	927	865	843	830	810	738	705	671	596	569	568	568	568	568	568	568	568	568	568	568	612	671	767	811	855	898	977	1013	1052	1159	1208	1257	1304	1381	1419	1447	1488	1495	1493	1483	1444	1435	1407	1386	1376	1361	1344	1325	1315	1302	1288	1241	1219	1192	1134	1128	1131	1125	1113	1096	1074	1023	986	929	910	865	839	814	760	729	712	706	719	744	764	817	852	889	913	950	969	980	1040	1079	1115	1187	1160	1131	1193	1351	1418	1475	1532	1630	1650	1647	1677	1745	1823	1884	1976	1987	1976	1952	1976	2004	1997	1909	1883	1864	1824	1809	1799	1785	1766	1762	1765	1775	1769	1726	1676	1591	1601	1636	1660	1607	1543	1476	1371	1321	1271	1210	1124	1136	1159	1168	1183	1202	1233	1307	1349	1371	1448	1511	1568	1620	1709	1760	1803	1908	1992	2068	2134	2089	2037	2004	1979	1980	1983	2025	2123	2182	2257	2289	2226	2178	2154	2096	2064	2024	1941	1911	1866	1839	1809	1798	1784	1719	1688
-9999	-9999	-9999	-9999	-9999	-9999	-9999	-9999	-9999	-9999	-9999	-9999	-9999	-9999	-9999	-9999	-9999	-9999	-9999	-9999	-9999	-9999	-9999	-9999	-9999	-9999	-9999	-9999	-9999	-9999	-9999	-9999	-9999	-9999	-9999	-9999	-9999	-9999	-9999	-9999	1471	1503	1499	1490	1485	1460	1423	1379	1296	1237	1177	1038	976	906	855	754	711	670	616	604	602	607	641	666	698	765	819	881	941	1046	1087	1118	1173	1200	1230	1259	1343	1400	1444	1533	1569	1598	1617	1681	1728	1775	1872	1908	1952	1998	2114	2119	2065	1979	1941	1899	1856	1768	1731	1698	1620	1588	1552	1510	1441	1435	1417	1344	1340	1319	1299	1264	1243	1241	1258	1321	1360	1396	1489	1539	1595	1646	1722	1695	1658	1625	1628	1646	1683	1715	1759	1813	1911	1952	1990	2017	2119	2204	2284	2389	2430	2450	2430	2402	2363	2199	2044	2023	2003	1977	1931	1926	1925	1954	1962	1960	1962	1988	1990	2009	2081	2101	2126	2110	2028	1989	1965	1883	1844	1831	1829	1812	1860	1884	1904	1933	1978	2028	2179	2182	2186	2207	2207	2192	2154	2074	2076	2124	2208	2359	2421	2526	2603	2574	2551	2514	2444	2416	2382	2325	2304	2290	2282	2261	2269	2280	2312	2303	2308	2319	2333	2299	2257	2210	2198	2165	2172	2176	2174	2173	2198	2203	2202	2200	2223	2230	2238	2237	2204	2141	2089	2103	2146	2156	2224	2188	2044	1968	1911	1893	1878	1858	1846	1835	1834	1861	1871	1878	1913	1941	1973	2030	2143	2090	2016	1979	1934	1873	1803	1769	1764	1773	1796	1789	1781	1774	1785	1810	1852	1815	1751	1726	1703	1651	1634	1622	1613	1616	1634	1614	1607	1583	1547	1502	1374	1303	1228	1112	1100	1096	1110	1159	1178	1186	1155	1161	1153	1115	1031	983	951	859	839	822	813	806	798	798	821	842	871	909	968	1016	1043	932	911	854	798	705	683	668	661	655	659	681	726	750	766	809	845	883	933	1053	1151	1308	1512	1576	1655	1733	1912	1911	1899	1857	1788	1714	1654	1544	1488	1433	1387	1334	1301	1262	1215	1180	1136	1093	1045	1011	978	899	870	838	804	742	709	673	596	570	568	568	568	568	568	568	568	568	568	568	584	634	741	777	813	843	918	987	1028	1133	1182	1231	1287	1373	1414	1443	1494	1502	1508	1493	1459	1456	1440	1413	1401	1390	1377	1360	1334	1324	1275	1251	1228	1197	1164	1168	1165	1156	1144	1129	1104	1056	1018	991	955	924	892	870	837	824	760	730	704	714	733	792	822	860	879	915	920	942	994	1036	1069	1095	1075	1156	1229	1346	1413	1473	1527	1594	1591	1579	1653	1740	1813	1879	1924	1926	1910	1881	1896	1917	1954	1938	1930	1948	1954	1951	1923	1843	1834	1843	1839	1800	1776	1725	1669	1558	1535	1540	1655	1608	1541	1471	1353	1308	1249	1143	1099	1120	1139	1145	1157	1167	1236	1265	1309	1344	1430	1490	1540	1639	1703	1757	1813	1981	2057	2049	2046	2008	1966	1934	1950	1952	1954	1976	2073	2131	2216	2300	2241	2177	2145	2074	2041	2006	1936	1892	1828	1788	1749	1732	1718	1698	1674
-9999	-9999	-9999	-9999	-9999	-9999	-9999	-9999	-9999	-9999	-9999	-9999	-9999	-9999	-9999	-9999	-9999	-9999	-9999	-9999	-9999	-9999	-9999	-9999	-9999	-9999	-9999	-9999	-9999	-9999	-9999	-9999	-9999	-9999	-9999	-9999	-9999	-9999	-9999	1430	1471	1482	1482	1472	1439	1418	1383	1286	1243	1213	1164	1023	957	894	775	726	687	653	610	603	603	613	653	680	710	803	861	921	981	1087	1126	1140	1200	1233	1265	1295	1346	1399	1451	1558	1614	1661	1691	1725	1767	1810	1889	1934	1976	2020	2099	2106	2055	1980	1942	1900	1858	1763	1732	1698	1630	1595	1563	1521	1445	1434	1409	1339	1305	1274	1240	1216	1214	1243	1308	1342	1379	1422	1521	1582	1648	1737	1766	1763	1744	1688	1712	1724	1756	1786	1831	1880	1956	1982	2008	2031	2107	2181	2277	2465	2535	2522	2498	2457	2348	2241	2079	2042	2014	1981	1927	1901	1878	1866	1860	1865	1868	1939	1939	1966	2021	2040	2060	2048	2010	1968	1941	1873	1830	1796	1789	1775	1782	1797	1867	1915	1962	2024	2147	2134	2139	2170	2177	2164	2134	2050	2044	2104	2261	2316	2370	2488	2598	2602	2592	2550	2512	2475	2449	2393	2340	2322	2300	2292	2295	2302	2326	2308	2322	2344	2354	2329	2295	2253	2241	2239	2250	2242	2239	2251	2270	2238	2236	2237	2256	2258	2262	2266	2247	2198	2143	2172	2191	2207	2276	2230	2144	2068	1977	1960	1948	1924	1913	1873	1874	1898	1904	1911	1941	1971	2002	2037	2145	2182	2113	2000	1946	1907	1892	1855	1840	1834	1834	1827	1803	1797	1810	1824	1861	1810	1783	1759	1736	1681	1658	1650	1650	1658	1679	1702	1611	1552	1499	1404	1357	1310	1257	1144	1137	1156	1168	1239	1236	1249	1226	1239	1213	1186	1097	1035	995	949	918	896	877	848	832	805	795	805	842	873	930	973	974	889	857	807	762	679	673	665	658	658	660	683	721	750	777	829	863	908	959	1092	1199	1353	1604	1689	1768	1842	1931	1925	1903	1857	1825	1759	1682	1554	1510	1458	1370	1348	1322	1286	1238	1196	1157	1082	1054	1020	990	909	888	862	783	756	712	672	598	569	568	568	568	568	568	568	568	568	568	568	576	622	714	756	787	819	888	927	976	1079	1131	1188	1251	1366	1410	1441	1500	1509	1514	1499	1478	1473	1457	1423	1414	1405	1394	1376	1355	1335	1295	1270	1229	1223	1203	1205	1201	1187	1177	1159	1135	1084	1047	1020	985	953	923	896	862	852	826	793	771	738	716	723	782	825	852	876	884	908	952	991	1024	1018	1084	1153	1219	1309	1362	1416	1460	1462	1463	1515	1651	1738	1802	1853	1862	1870	1838	1800	1824	1845	1870	1882	1868	1899	1936	1947	1952	1941	1900	1849	1799	1708	1653	1701	1648	1532	1495	1472	1532	1583	1520	1457	1350	1290	1227	1128	1088	1102	1119	1111	1123	1138	1182	1234	1295	1364	1436	1491	1533	1663	1740	1789	1845	1999	2034	2017	1994	1972	1933	1898	1873	1886	1892	1921	1969	2042	2170	2268	2255	2202	2104	2063	2029	2006	1932	1887	1818	1763	1737	1709	1692	1652	1641
-9999	-9999	-9999	-9999	-9999	-9999	-9999	-9999	-9999	-9999	-9999	-9999	-9999	-9999	-9999	-9999	-9999	-9999	-9999	-9999	-9999	-9999	-9999	-9999	-9999	-9999	-9999	-9999	-9999	-9999	-9999	-9999	-9999	-9999	-9999	-9999	-9999	-9999	-9999	1410	1447	1453	1459	1454	1420	1397	1361	1257	1221	1192	1142	1022	953	885	747	695	669	635	607	603	604	638	662	690	724	825	885	944	1058	1109	1147	1183	1258	1295	1333	1392	1424	1446	1448	1548	1612	1682	1733	1789	1827	1874	1929	1983	2028	2072	2126	2118	2067	1993	1955	1913	1876	1788	1747	1706	1641	1602	1565	1529	1461	1444	1416	1334	1294	1257	1226	1199	1214	1254	1357	1412	1455	1509	1628	1708	1717	1815	1850	1870	1838	1780	1757	1744	1774	1809	1861	1902	1974	1995	2022	2115	2160	2218	2285	2493	2575	2601	2521	2423	2326	2255	2121	2071	2034	1962	1932	1904	1875	1840	1822	1824	1833	1846	1849	1876	1884	1914	1930	1982	1986	1947	1907	1849	1811	1772	1756	1743	1747	1766	1862	1907	1957	2011	2049	2040	2053	2116	2114	2092	2113	2032	2023	2081	2206	2245	2342	2438	2552	2604	2591	2567	2539	2511	2483	2433	2409	2384	2360	2350	2347	2352	2333	2327	2339	2359	2372	2366	2338	2297	2281	2280	2280	2283	2283	2291	2306	2298	2292	2290	2292	2298	2311	2287	2273	2240	2216	2226	2233	2247	2321	2304	2268	2191	2054	1993	1977	1958	1946	1934	1941	1957	1965	1979	2066	2012	2041	2074	2161	2212	2141	2039	1995	1948	1931	1897	1882	1871	1859	1852	1851	1849	1869	1879	1894	1869	1812	1794	1774	1720	1701	1690	1689	1699	1701	1673	1580	1531	1489	1417	1376	1344	1301	1267	1263	1256	1285	1334	1304	1315	1289	1300	1271	1249	1179	1095	1045	992	964	937	891	872	856	848	831	811	791	827	855	927	927	860	832	790	749	683	668	664	658	657	668	684	728	763	801	879	909	930	978	1184	1294	1387	1609	1696	1823	1898	1946	1928	1900	1839	1795	1747	1686	1564	1541	1508	1455	1403	1362	1320	1265	1240	1192	1096	1068	1033	1005	924	903	871	789	756	705	672	597	568	568	568	568	568	568	568	568	568	568	568	570	608	692	730	764	832	863	908	950	1056	1110	1170	1284	1318	1382	1423	1488	1512	1524	1510	1495	1487	1471	1436	1428	1417	1410	1381	1363	1343	1303	1276	1252	1262	1264	1264	1261	1246	1222	1217	1168	1104	1066	1039	1003	980	949	925	893	876	849	825	807	776	757	727	718	748	801	812	826	843	914	943	977	998	1074	1142	1182	1266	1314	1362	1393	1396	1435	1504	1617	1673	1735	1792	1763	1734	1745	1668	1745	1775	1868	1840	1813	1835	1887	1909	1921	1830	1793	1794	1756	1667	1617	1569	1545	1478	1428	1388	1343	1484	1481	1412	1311	1256	1199	1097	1077	1080	1100	1092	1102	1119	1188	1235	1283	1343	1471	1547	1634	1779	1829	1848	1891	1973	1987	1970	1944	1939	1901	1861	1839	1848	1855	1883	1923	1988	2041	2155	2158	2121	2057	2036	2021	2001	1927	1884	1828	1784	1771	1726	1682	1616	1612
-9999	-9999	-9999	-9999	-9999	-9999	-9999	-9999	-9999	-9999	-9999	-9999	-9999	-9999	-9999	-9999	-9999	-9999	-9999	-9999	-9999	-9999	-9999	-9999	-9999	-9999	-9999	-9999	-9999	-9999	-9999	-9999	-9999	-9999	-9999	-9999	-9999	-9999	-9999	1353	1377	1420	1433	1430	1399	1376	1335	1231	1191	1155	1107	987	924	861	730	677	637	616	601	603	609	657	671	702	739	848	906	965	1080	1128	1169	1206	1290	1331	1366	1425	1463	1483	1506	1601	1659	1703	1799	1855	1890	1937	2004	2042	2079	2137	2178	2168	2091	2006	1962	1918	1840	1800	1760	1724	1661	1622	1581	1514	1495	1459	1427	1325	1282	1242	1214	1196	1225	1263	1389	1453	1500	1559	1740	1820	1904	2050	2043	1970	1888	1773	1745	1742	1777	1825	1883	1921	1992	2014	2055	2173	2231	2283	2347	2511	2538	2556	2481	2414	2361	2313	2213	2172	2086	1991	1953	1920	1889	1832	1805	1792	1803	1799	1799	1821	1827	1851	1867	1851	1880	1867	1849	1791	1772	1762	1726	1717	1709	1741	1846	1888	1924	1986	2004	2007	2021	2092	2080	2047	2042	2016	1981	2009	2103	2191	2273	2379	2474	2551	2550	2536	2532	2519	2508	2461	2440	2418	2388	2381	2373	2374	2373	2370	2370	2395	2413	2428	2392	2326	2315	2316	2308	2312	2314	2320	2336	2320	2312	2308	2315	2317	2336	2329	2331	2329	2326	2332	2343	2293	2359	2390	2409	2236	2152	2057	2017	1999	1993	1979	1982	1988	2001	2030	2170	2245	2291	2343	2357	2360	2289	2070	2018	1982	1962	1939	1926	1913	1895	1884	1879	1882	1903	1908	1914	1893	1872	1853	1842	1802	1786	1782	1736	1718	1692	1658	1572	1535	1504	1440	1406	1366	1340	1312	1304	1290	1316	1361	1428	1440	1432	1405	1375	1351	1258	1185	1115	1039	1010	977	917	900	881	871	849	827	810	788	818	832	848	803	773	743	685	679	670	665	661	669	684	721	751	790	827	912	953	988	1034	1138	1271	1327	1490	1563	1703	1847	1955	1925	1892	1813	1762	1728	1683	1610	1606	1569	1502	1450	1389	1343	1272	1249	1223	1162	1115	1081	1038	949	913	867	789	745	703	675	597	568	568	568	568	568	568	568	568	568	568	568	570	600	656	693	744	813	853	892	933	1032	1085	1148	1250	1293	1351	1390	1467	1499	1517	1534	1538	1530	1510	1476	1468	1436	1407	1392	1375	1354	1311	1288	1282	1287	1293	1290	1286	1267	1252	1250	1225	1140	1106	1076	1029	1013	997	957	921	898	879	852	834	814	800	760	731	725	761	779	801	821	851	869	873	978	1039	1084	1146	1225	1272	1308	1322	1367	1426	1484	1585	1647	1716	1750	1715	1666	1689	1605	1590	1612	1753	1781	1734	1695	1815	1852	1868	1773	1710	1700	1721	1642	1595	1544	1456	1448	1412	1366	1286	1293	1297	1217	1182	1142	1107	1073	1064	1065	1072	1076	1092	1124	1198	1243	1296	1414	1488	1567	1648	1787	1815	1815	1823	1874	1883	1877	1836	1893	1868	1830	1802	1818	1820	1839	1878	1929	1981	2102	2113	2083	2021	2002	1982	1969	1927	1890	1855	1800	1784	1747	1683	1573	1564
-9999	-9999	-9999	-9999	-9999	-9999	-9999	-9999	-9999	-9999	-9999	-9999	-9999	-9999	-9999	-9999	-9999	-9999	-9999	-9999	-9999	-9999	-9999	-9999	-9999	-9999	-9999	-9999	-9999	-9999	-9999	-9999	-9999	-9999	-9999	-9999	-9999	-9999	-9999	1329	1350	1367	1375	1354	1337	1310	1274	1204	1158	1115	1016	951	890	830	709	661	627	608	605	605	621	670	698	732	778	884	939	995	1111	1146	1194	1235	1322	1364	1398	1462	1498	1522	1544	1615	1673	1726	1817	1872	1930	1986	2086	2102	2122	2156	2173	2178	2134	2022	1972	1925	1850	1814	1774	1736	1660	1624	1595	1543	1521	1499	1462	1339	1288	1236	1182	1200	1234	1275	1387	1449	1519	1692	1781	1923	2006	2088	2034	1985	1843	1790	1761	1761	1808	1870	1920	1961	2038	2054	2136	2281	2320	2396	2447	2504	2508	2519	2536	2439	2365	2326	2245	2209	2176	2131	2104	2073	2022	1886	1804	1782	1764	1766	1752	1767	1766	1791	1809	1791	1812	1803	1797	1748	1737	1733	1695	1679	1679	1710	1786	1852	1884	1944	1968	1988	2003	2061	2035	1991	1996	1987	1955	1975	2064	2145	2213	2409	2490	2487	2442	2428	2433	2488	2502	2490	2466	2449	2417	2407	2396	2394	2391	2388	2392	2415	2429	2445	2461	2438	2413	2381	2347	2341	2333	2339	2356	2339	2328	2332	2339	2344	2357	2348	2351	2353	2381	2399	2412	2426	2412	2393	2361	2382	2399	2312	2116	2041	2038	2028	2036	2050	2079	2116	2263	2313	2315	2321	2318	2329	2344	2180	2124	2084	2041	2023	2024	1960	1934	1919	1912	1935	1939	1941	1939	1921	1908	1889	1864	1847	1828	1813	1771	1739	1699	1634	1597	1568	1539	1460	1427	1397	1384	1349	1338	1332	1357	1402	1469	1501	1488	1458	1421	1404	1390	1338	1279	1155	1102	1056	953	930	912	902	866	852	835	781	774	775	793	787	759	728	673	666	667	666	680	709	729	747	777	809	854	942	991	1065	1065	1096	1206	1267	1428	1502	1625	1898	1930	1932	1892	1852	1815	1802	1767	1670	1646	1602	1533	1491	1441	1318	1293	1271	1238	1184	1134	1088	990	967	919	859	777	735	713	683	600	569	568	568	568	568	568	568	568	568	568	568	573	601	645	673	709	783	838	871	902	977	1054	1123	1224	1274	1314	1352	1446	1482	1510	1541	1555	1545	1533	1499	1488	1469	1437	1420	1402	1381	1351	1321	1319	1322	1323	1315	1310	1288	1283	1270	1202	1155	1125	1089	1049	1030	1017	983	973	954	933	903	884	843	813	792	765	734	730	751	778	824	838	842	861	949	1009	1043	1069	1145	1171	1174	1295	1354	1420	1462	1535	1587	1657	1708	1661	1610	1596	1561	1526	1568	1686	1743	1719	1664	1667	1720	1747	1696	1642	1582	1622	1618	1582	1535	1414	1382	1393	1361	1265	1227	1220	1165	1138	1099	1065	1046	1047	1048	1052	1061	1100	1136	1199	1251	1307	1423	1495	1569	1643	1773	1781	1774	1790	1815	1827	1827	1796	1778	1761	1737	1724	1726	1734	1797	1832	1879	1995	2043	2068	2054	1995	1985	1971	1923	1919	1874	1837	1788	1765	1716	1666	1536	1496
-9999	-9999	-9999	-9999	-9999	-9999	-9999	-9999	-9999	-9999	-9999	-9999	-9999	-9999	-9999	-9999	-9999	-9999	-9999	-9999	-9999	-9999	-9999	-9999	-9999	-9999	-9999	-9999	-9999	-9999	-9999	-9999	-9999	-9999	-9999	-9999	-9999	-9999	-9999	1311	1327	1336	1338	1319	1305	1274	1242	1135	1088	1044	955	902	846	803	692	651	619	601	606	611	630	682	713	753	853	902	955	1010	1115	1172	1228	1331	1375	1415	1450	1500	1533	1560	1581	1637	1688	1740	1838	1893	1950	1998	2050	2054	2076	2095	2090	2102	2144	2038	1998	1949	1858	1828	1788	1749	1682	1649	1621	1563	1535	1509	1478	1360	1303	1244	1181	1203	1239	1279	1403	1499	1592	1757	1809	1913	2068	2106	2044	1991	1865	1816	1788	1791	1832	1889	1937	2014	2060	2160	2321	2403	2410	2421	2432	2474	2478	2492	2551	2528	2420	2339	2304	2267	2245	2174	2128	2086	2031	1922	1846	1790	1725	1704	1684	1669	1718	1733	1742	1737	1753	1740	1739	1707	1693	1687	1671	1659	1662	1690	1758	1792	1825	1891	1913	1926	1948	1981	1982	1945	1957	1952	1932	1951	2038	2107	2176	2422	2425	2421	2384	2395	2395	2394	2403	2439	2493	2494	2468	2429	2418	2418	2414	2408	2414	2432	2446	2457	2487	2462	2419	2390	2341	2324	2305	2285	2283	2287	2294	2335	2360	2366	2378	2372	2372	2374	2371	2410	2427	2395	2332	2300	2277	2314	2395	2386	2335	2232	2233	2275	2291	2284	2230	2258	2287	2280	2270	2275	2278	2284	2300	2311	2262	2205	2130	2067	2053	2049	2034	2011	1992	1992	2000	1975	1971	1946	1941	1928	1889	1868	1849	1838	1795	1758	1718	1649	1613	1585	1553	1502	1483	1467	1430	1423	1410	1371	1402	1440	1497	1550	1537	1504	1468	1461	1454	1395	1270	1213	1143	1098	1046	1019	977	956	923	913	859	804	786	776	767	774	766	737	682	683	680	685	705	723	753	802	839	876	921	1011	1087	1215	1206	1164	1183	1242	1369	1436	1550	1815	1919	1965	1930	1876	1850	1830	1784	1721	1667	1642	1565	1530	1485	1364	1320	1288	1248	1195	1148	1091	1008	980	922	868	769	746	721	644	598	569	568	568	568	568	568	568	568	568	568	568	574	616	635	656	687	782	822	855	889	962	1023	1079	1166	1208	1249	1296	1421	1463	1491	1541	1555	1549	1544	1521	1509	1489	1449	1431	1413	1387	1384	1388	1388	1382	1373	1362	1342	1328	1299	1281	1214	1168	1135	1100	1068	1056	1045	1005	999	978	973	942	920	904	868	847	832	815	767	733	758	804	817	827	852	912	972	1001	1067	1101	1108	1142	1263	1319	1361	1365	1434	1509	1584	1626	1586	1570	1527	1523	1482	1535	1619	1676	1686	1638	1579	1638	1692	1658	1620	1570	1494	1481	1524	1484	1390	1332	1315	1332	1255	1198	1156	1122	1096	1068	1047	1039	1040	1040	1046	1062	1105	1145	1232	1317	1379	1471	1530	1593	1645	1758	1751	1743	1740	1754	1766	1769	1762	1735	1721	1708	1704	1707	1713	1735	1760	1803	1903	1939	1971	2029	1969	1953	1946	1882	1869	1826	1771	1741	1716	1675	1580	1518	1488
-9999	-9999	-9999	-9999	-9999	-9999	-9999	-9999	-9999	-9999	-9999	-9999	-9999	-9999	-9999	-9999	-9999	-9999	-9999	-9999	-9999	-9999	-9999	-9999	-9999	-9999	-9999	-9999	-9999	-9999	-9999	-9999	-9999	-9999	-9999	-9999	-9999	-9999	-9999	1309	1298	1299	1303	1284	1270	1246	1212	1114	1063	1010	927	871	816	765	661	626	602	601	608	616	632	679	719	767	871	914	962	1020	1118	1173	1225	1345	1394	1431	1469	1562	1605	1647	1702	1697	1730	1758	1857	1907	1952	2006	2005	2006	2025	2059	2069	2096	2067	2009	1972	1927	1838	1802	1767	1732	1670	1638	1628	1560	1521	1490	1466	1372	1310	1250	1181	1196	1232	1277	1415	1516	1599	1811	1885	1979	2118	2120	2097	2051	1893	1852	1827	1832	1863	1911	1953	2029	2076	2167	2293	2367	2380	2394	2415	2419	2418	2437	2478	2517	2512	2385	2337	2288	2231	2136	2097	2067	1984	1930	1867	1806	1712	1682	1653	1632	1626	1632	1643	1636	1646	1640	1683	1667	1640	1631	1626	1620	1643	1672	1732	1758	1797	1851	1862	1876	1902	1910	1874	1857	1877	1888	1893	1913	2020	2089	2232	2366	2366	2356	2346	2348	2344	2342	2350	2373	2424	2476	2493	2481	2461	2469	2462	2455	2453	2438	2457	2469	2458	2423	2394	2371	2318	2297	2278	2255	2253	2247	2257	2301	2346	2399	2405	2365	2322	2291	2264	2328	2339	2288	2263	2240	2229	2259	2342	2327	2284	2274	2284	2299	2258	2251	2239	2224	2226	2216	2202	2214	2244	2250	2261	2294	2316	2328	2193	2119	2091	2092	2065	2052	2034	2018	2030	2032	2029	2020	2011	1995	1935	1904	1864	1848	1806	1771	1739	1672	1633	1605	1582	1536	1519	1500	1469	1458	1451	1463	1476	1504	1558	1661	1635	1548	1508	1513	1513	1451	1333	1272	1200	1171	1098	1058	1017	994	980	954	953	913	886	870	813	795	747	735	721	714	712	724	738	758	778	836	866	905	955	1024	1123	1307	1415	1384	1349	1388	1477	1496	1520	1744	1898	2000	1979	1910	1876	1852	1783	1722	1674	1647	1578	1542	1495	1412	1368	1329	1287	1210	1165	1103	1023	977	925	879	773	757	721	638	603	572	568	568	568	568	568	568	568	568	568	568	579	611	631	649	678	764	803	844	903	941	994	1042	1129	1177	1223	1335	1392	1441	1468	1538	1555	1557	1556	1543	1532	1509	1464	1446	1425	1403	1413	1416	1413	1404	1395	1379	1367	1340	1322	1297	1233	1203	1173	1143	1093	1082	1073	1036	1032	1021	1013	988	965	947	908	891	865	843	803	780	756	753	764	773	788	888	934	958	1017	1033	1050	1111	1214	1274	1302	1355	1428	1463	1509	1564	1549	1515	1396	1380	1368	1408	1504	1604	1623	1556	1514	1563	1632	1608	1572	1537	1396	1380	1436	1442	1341	1303	1259	1177	1158	1125	1100	1064	1064	1043	1032	1032	1034	1035	1040	1061	1104	1154	1263	1353	1423	1499	1552	1608	1675	1708	1680	1657	1637	1630	1688	1700	1723	1704	1691	1686	1687	1690	1696	1710	1735	1770	1864	1908	1957	2006	1951	1900	1862	1811	1763	1715	1723	1685	1665	1633	1550	1507	1484
-9999	-9999	-9999	-9999	-9999	-9999	-9999	-9999	-9999	-9999	-9999	-9999	-9999	-9999	-9999	-9999	-9999	-9999	-9999	-9999	-9999	-9999	-9999	-9999	-9999	-9999	-9999	-9999	-9999	-9999	-9999	-9999	-9999	-9999	-9999	-9999	-9999	-9999	-9999	1282	1243	1225	1230	1228	1241	1218	1185	1102	1061	1002	893	833	794	747	652	620	599	609	611	625	640	701	741	776	870	918	956	1008	1097	1146	1199	1326	1396	1438	1483	1583	1629	1678	1726	1734	1763	1801	1822	1833	1859	1920	1937	1969	1998	2050	2066	2112	2043	1993	1951	1906	1821	1788	1750	1678	1641	1609	1576	1511	1472	1426	1341	1300	1295	1244	1179	1192	1223	1321	1416	1517	1599	1787	1867	1960	2089	2118	2094	2049	2002	2029	1987	1955	1948	1972	1979	2052	2111	2203	2294	2341	2361	2375	2387	2390	2394	2409	2440	2476	2501	2336	2290	2259	2206	2112	2070	2046	1980	1930	1878	1817	1699	1658	1633	1586	1590	1588	1593	1594	1598	1589	1567	1563	1549	1529	1537	1558	1583	1671	1693	1723	1761	1810	1813	1823	1850	1838	1821	1818	1855	1872	1876	1947	2004	2119	2230	2264	2273	2272	2304	2297	2299	2306	2309	2327	2367	2429	2443	2441	2448	2462	2458	2481	2481	2492	2497	2510	2430	2386	2340	2346	2290	2264	2244	2222	2218	2211	2216	2249	2271	2329	2359	2317	2279	2256	2225	2223	2217	2191	2171	2156	2150	2203	2287	2277	2250	2249	2243	2241	2212	2207	2200	2195	2191	2185	2182	2182	2182	2190	2205	2215	2237	2266	2272	2204	2180	2131	2102	2092	2086	2087	2077	2065	2063	2073	2056	2032	2004	1961	1903	1880	1835	1801	1777	1728	1662	1640	1621	1576	1559	1533	1513	1500	1497	1497	1507	1532	1586	1691	1669	1620	1582	1592	1625	1590	1436	1336	1286	1233	1140	1086	1074	1061	1046	1014	1031	978	960	935	866	847	834	822	805	802	786	801	818	796	817	862	894	936	1087	1154	1237	1349	1474	1461	1430	1524	1553	1561	1589	1678	1767	1950	1996	1958	1908	1871	1785	1724	1676	1622	1591	1552	1504	1420	1382	1338	1286	1207	1169	1126	1032	982	940	890	809	767	723	637	605	573	568	568	568	568	568	568	568	568	568	568	575	610	628	651	676	735	769	829	892	922	956	1007	1101	1147	1206	1328	1379	1424	1453	1526	1553	1562	1585	1583	1566	1548	1499	1475	1454	1430	1435	1437	1432	1426	1417	1399	1369	1353	1333	1309	1247	1225	1208	1159	1141	1116	1095	1098	1089	1110	1047	1029	1007	992	947	931	909	883	832	813	789	744	745	748	758	828	855	886	921	950	996	1032	1165	1223	1233	1329	1370	1398	1463	1497	1491	1472	1373	1320	1301	1357	1446	1459	1437	1448	1409	1451	1493	1560	1515	1478	1385	1313	1339	1378	1291	1255	1218	1142	1104	1082	1067	1044	1032	1023	1021	1024	1027	1025	1038	1063	1104	1222	1290	1373	1448	1530	1568	1612	1673	1669	1639	1608	1595	1594	1592	1611	1642	1659	1656	1654	1668	1674	1672	1685	1707	1746	1842	1891	1938	1996	1947	1887	1835	1772	1730	1691	1658	1613	1587	1556	1501	1489	1475
-9999	-9999	-9999	-9999	-9999	-9999	-9999	-9999	-9999	-9999	-9999	-9999	-9999	-9999	-9999	-9999	-9999	-9999	-9999	-9999	-9999	-9999	-9999	-9999	-9999	-9999	-9999	-9999	-9999	-9999	-9999	-9999	-9999	-9999	-9999	-9999	-9999	-9999	-9999	1296	1253	1209	1186	1199	1187	1163	1097	1055	1010	965	879	818	762	674	644	617	599	615	612	622	672	713	760	807	920	968	1010	1046	1106	1130	1168	1273	1361	1421	1484	1591	1638	1684	1702	1714	1735	1748	1772	1796	1833	1903	1910	1936	1979	2028	2078	2146	2027	1986	1944	1894	1807	1774	1737	1667	1629	1591	1551	1479	1436	1386	1296	1255	1221	1195	1179	1202	1231	1325	1411	1501	1586	1738	1847	1939	2111	2098	2081	2057	2075	2090	2082	2027	2023	2034	2065	2220	2270	2269	2274	2285	2331	2333	2344	2345	2360	2372	2401	2411	2441	2353	2286	2235	2190	2105	2060	2016	1931	1887	1854	1812	1682	1631	1604	1561	1554	1546	1555	1546	1550	1542	1519	1513	1500	1486	1498	1517	1544	1587	1619	1649	1672	1701	1699	1767	1795	1787	1768	1779	1842	1860	1868	1942	2006	2119	2181	2220	2235	2238	2219	2215	2218	2219	2234	2263	2326	2401	2386	2378	2385	2401	2407	2459	2510	2514	2500	2508	2438	2365	2322	2260	2228	2195	2169	2153	2151	2150	2184	2205	2225	2273	2298	2255	2243	2215	2185	2175	2171	2144	2126	2119	2112	2122	2190	2204	2175	2166	2142	2189	2170	2165	2162	2159	2152	2153	2155	2153	2156	2172	2184	2192	2212	2240	2318	2333	2328	2340	2347	2345	2198	2145	2122	2114	2117	2139	2116	2086	2047	1985	1938	1890	1863	1836	1824	1762	1736	1705	1644	1627	1620	1620	1554	1543	1535	1528	1532	1549	1601	1712	1704	1655	1619	1626	1672	1648	1518	1450	1390	1323	1185	1191	1215	1126	1122	1082	1101	1068	1039	1007	947	931	912	899	847	846	833	842	856	878	900	946	970	1013	1229	1222	1329	1389	1533	1540	1513	1603	1650	1632	1668	1744	1858	2003	1992	1953	1922	1883	1796	1738	1682	1620	1590	1553	1509	1422	1382	1337	1248	1210	1172	1130	1034	997	947	852	812	775	747	657	605	570	568	568	568	568	568	568	568	568	568	568	575	604	622	646	671	725	771	811	870	900	933	989	1068	1128	1195	1312	1366	1407	1443	1515	1554	1567	1592	1593	1580	1558	1517	1502	1485	1489	1482	1484	1480	1466	1455	1417	1385	1368	1349	1328	1279	1256	1236	1192	1159	1130	1130	1129	1133	1151	1128	1100	1078	1056	1018	999	937	896	873	850	819	775	751	748	766	800	829	855	892	923	957	1022	1070	1111	1122	1240	1242	1310	1413	1429	1438	1416	1335	1295	1255	1295	1373	1385	1356	1387	1344	1390	1427	1422	1399	1366	1321	1287	1223	1279	1261	1199	1159	1093	1068	1054	1047	1028	1021	1017	1018	1021	1022	1022	1044	1072	1115	1225	1292	1359	1440	1529	1535	1552	1599	1610	1593	1569	1559	1564	1560	1575	1609	1635	1639	1638	1628	1635	1668	1692	1735	1791	1868	1874	1927	1990	1932	1874	1821	1730	1697	1670	1646	1623	1600	1567	1511	1518	1527
-9999	-9999	-9999	-9999	-9999	-9999	-9999	-9999	-9999	-9999	-9999	-9999	-9999	-9999	-9999	-9999	-9999	-9999	-9999	-9999	-9999	-9999	-9999	-9999	-9999	-9999	-9999	-9999	-9999	-9999	-9999	-9999	-9999	-9999	-9999	-9999	-9999	-9999	-9999	1317	1277	1223	1181	1165	1154	1129	1069	1028	984	943	843	776	721	650	623	605	601	612	610	621	678	722	770	821	956	1024	1085	1149	1166	1174	1198	1283	1328	1374	1479	1535	1573	1593	1659	1665	1681	1717	1735	1775	1819	1888	1902	1937	1980	2042	2100	2154	2039	1983	1919	1870	1788	1745	1713	1654	1615	1574	1533	1453	1401	1353	1266	1226	1195	1176	1179	1207	1238	1326	1420	1487	1536	1735	1820	1896	1916	2001	2037	2066	2072	2087	2128	2154	2143	2156	2182	2249	2243	2243	2233	2242	2249	2247	2260	2265	2290	2305	2354	2360	2383	2381	2295	2246	2131	2080	2042	2002	1917	1867	1822	1731	1674	1626	1596	1543	1519	1501	1492	1468	1501	1500	1472	1461	1458	1451	1459	1480	1499	1549	1580	1603	1618	1645	1646	1675	1707	1696	1691	1729	1788	1840	1860	1940	2011	2097	2130	2181	2201	2204	2180	2181	2180	2185	2203	2231	2243	2319	2296	2282	2283	2283	2354	2380	2497	2485	2460	2462	2423	2347	2308	2218	2185	2160	2138	2116	2107	2109	2116	2125	2145	2171	2178	2132	2202	2154	2144	2132	2127	2094	2088	2079	2058	2072	2134	2170	2143	2129	2121	2123	2102	2099	2086	2082	2090	2126	2129	2129	2135	2149	2162	2170	2193	2215	2274	2276	2276	2295	2320	2320	2334	2338	2295	2257	2319	2290	2219	2160	2051	2010	1973	1917	1891	1866	1844	1786	1755	1730	1678	1660	1650	1657	1614	1601	1596	1580	1586	1594	1613	1726	1734	1681	1634	1660	1719	1706	1572	1477	1410	1260	1228	1264	1284	1247	1211	1224	1212	1183	1160	1126	1011	990	968	919	898	887	878	894	903	928	954	1005	1063	1143	1281	1336	1400	1471	1593	1656	1708	1728	1745	1727	1778	1827	1938	2024	1972	1931	1909	1884	1806	1743	1688	1622	1589	1544	1503	1428	1390	1346	1256	1205	1166	1124	1036	999	949	861	808	779	755	669	617	574	568	568	568	568	568	568	568	568	568	568	571	607	645	671	717	751	788	815	873	919	954	1025	1061	1096	1164	1276	1332	1385	1468	1509	1557	1569	1607	1611	1593	1572	1539	1526	1513	1518	1509	1510	1506	1483	1471	1454	1423	1407	1388	1370	1340	1290	1256	1213	1170	1152	1154	1168	1180	1191	1160	1132	1108	1088	1044	1024	1000	951	931	906	885	838	804	755	754	782	811	828	863	890	919	982	1020	1046	1101	1173	1203	1263	1317	1309	1345	1316	1244	1223	1214	1272	1308	1317	1296	1317	1301	1337	1407	1364	1321	1318	1245	1216	1181	1121	1117	1083	1056	1019	1017	1015	1027	1017	1011	1011	1016	1016	1018	1024	1046	1072	1105	1213	1278	1347	1407	1431	1424	1433	1459	1481	1498	1537	1530	1534	1535	1553	1581	1609	1620	1617	1627	1644	1694	1730	1773	1821	1904	1926	1972	1957	1908	1870	1836	1735	1710	1682	1673	1646	1623	1597	1536	1557	1571
-9999	-9999	-9999	-9999	-9999	-9999	-9999	-9999	-9999	-9999	-9999	-9999	-9999	-9999	-9999	-9999	-9999	-9999	-9999	-9999	-9999	-9999	-9999	-9999	-9999	-9999	-9999	-9999	-9999	-9999	-9999	-9999	-9999	-9999	-9999	-9999	-9999	-9999	-9999	-9999	1278	1230	1187	1129	1129	1101	1035	996	963	919	812	749	699	638	617	601	604	602	608	631	699	742	794	836	981	1057	1117	1201	1224	1242	1255	1305	1349	1389	1470	1505	1534	1551	1576	1605	1627	1646	1683	1738	1807	1885	1912	1947	2021	2066	2118	2153	2051	1998	1916	1817	1779	1737	1704	1628	1585	1548	1463	1420	1367	1312	1242	1210	1182	1162	1176	1205	1243	1334	1397	1454	1512	1718	1767	1821	1855	1921	1961	1964	2033	2053	2077	2223	2250	2251	2243	2216	2203	2209	2204	2199	2196	2203	2215	2232	2254	2269	2281	2298	2339	2407	2336	2265	2140	2082	2034	1991	1903	1860	1810	1716	1674	1636	1597	1539	1519	1498	1459	1452	1424	1417	1408	1399	1391	1391	1430	1449	1465	1501	1531	1555	1584	1597	1594	1628	1662	1656	1657	1721	1756	1793	1833	1930	1970	2005	2036	2144	2169	2172	2141	2143	2140	2145	2175	2191	2211	2272	2248	2235	2238	2250	2268	2282	2386	2355	2350	2362	2344	2339	2289	2190	2158	2131	2112	2076	2062	2059	2075	2087	2104	2127	2124	2087	2091	2097	2071	2055	2048	2040	2049	2033	2011	2029	2113	2134	2102	2102	2101	2078	2070	2059	2043	2042	2048	2053	2068	2079	2089	2094	2101	2141	2160	2202	2228	2231	2228	2258	2264	2266	2280	2313	2359	2387	2342	2279	2222	2173	2106	2077	2033	1961	1929	1882	1853	1799	1777	1755	1706	1688	1685	1690	1634	1625	1623	1611	1611	1615	1636	1732	1785	1740	1714	1766	1775	1734	1547	1479	1413	1288	1301	1331	1359	1279	1294	1309	1262	1238	1207	1167	1089	1054	1034	1007	1003	985	925	940	952	975	1044	1088	1150	1214	1315	1357	1408	1524	1586	1654	1713	1828	1881	1959	2013	1978	2015	2033	1958	1920	1899	1888	1796	1747	1697	1627	1597	1550	1508	1431	1396	1355	1257	1197	1151	1113	1022	992	960	860	813	789	763	685	634	587	568	568	568	568	568	568	568	568	568	568	570	602	644	680	742	774	802	829	893	931	960	1014	1039	1072	1132	1252	1319	1379	1469	1509	1554	1564	1598	1604	1608	1585	1559	1541	1536	1541	1533	1537	1515	1502	1488	1473	1439	1426	1407	1377	1363	1328	1294	1223	1216	1229	1247	1210	1219	1224	1199	1172	1146	1114	1075	1055	1035	979	952	928	910	862	828	794	756	765	784	795	824	860	883	951	980	1003	1051	1111	1162	1203	1252	1235	1291	1285	1213	1163	1141	1157	1148	1151	1150	1179	1251	1274	1357	1321	1266	1242	1207	1147	1123	1074	1064	1042	1022	1002	1006	1005	997	1001	1006	1015	1021	1024	1023	1051	1068	1092	1107	1204	1266	1329	1384	1375	1373	1383	1422	1436	1455	1531	1519	1514	1511	1525	1539	1587	1604	1620	1637	1661	1739	1775	1811	1849	1936	1953	1996	1925	1894	1870	1849	1784	1745	1725	1709	1690	1678	1633	1584	1597	1612
-9999	-9999	-9999	-9999	-9999	-9999	-9999	-9999	-9999	-9999	-9999	-9999	-9999	-9999	-9999	-9999	-9999	-9999	-9999	-9999	-9999	-9999	-9999	-9999	-9999	-9999	-9999	-9999	-9999	-9999	-9999	-9999	-9999	-9999	-9999	-9999	-9999	-9999	-9999	-9999	1274	1232	1138	1082	1051	1045	989	947	935	841	782	726	684	627	605	600	601	602	609	643	711	754	814	883	1004	1061	1123	1244	1283	1293	1320	1329	1367	1408	1475	1497	1510	1522	1551	1596	1616	1630	1671	1732	1790	1868	1911	1955	2039	2086	2122	2144	2033	1972	1901	1807	1771	1735	1700	1623	1573	1525	1436	1393	1346	1294	1216	1189	1164	1149	1175	1209	1246	1336	1394	1474	1624	1675	1714	1749	1823	1886	1901	1971	2026	2051	2077	2160	2207	2189	2155	2139	2131	2163	2163	2157	2153	2158	2173	2199	2219	2239	2254	2273	2323	2425	2425	2344	2168	2101	2053	1998	1907	1866	1819	1712	1671	1631	1596	1547	1526	1500	1454	1438	1417	1403	1382	1376	1371	1375	1381	1392	1399	1426	1450	1468	1536	1551	1552	1584	1620	1614	1622	1697	1728	1774	1818	1899	1931	1960	2016	2070	2098	2093	2064	2064	2073	2114	2135	2149	2183	2224	2207	2201	2201	2213	2227	2242	2319	2287	2304	2306	2297	2295	2252	2140	2105	2076	2054	2039	2033	2029	2037	2048	2063	2087	2072	2040	2026	2061	2038	2021	2018	2017	1991	1959	1897	1948	2010	2048	2063	2065	2068	2050	2036	2015	2005	2000	2005	2002	2030	2039	2048	2056	2079	2090	2104	2148	2150	2147	2146	2168	2216	2226	2248	2272	2316	2354	2340	2294	2248	2174	2137	2105	2055	1980	1948	1915	1855	1827	1799	1783	1750	1723	1716	1719	1663	1660	1658	1646	1645	1645	1657	1728	1798	1775	1757	1824	1784	1691	1538	1470	1417	1439	1512	1437	1428	1358	1369	1366	1311	1287	1252	1206	1129	1084	1053	1016	1008	998	984	988	993	1019	1099	1144	1179	1235	1329	1375	1422	1527	1584	1648	1713	1828	1899	1978	2033	2025	2024	2032	1970	1934	1906	1837	1808	1779	1716	1640	1600	1557	1469	1435	1397	1360	1272	1216	1171	1085	1033	990	948	871	835	795	756	684	640	598	568	568	568	568	568	568	568	568	568	568	571	602	645	674	719	720	746	806	863	902	932	977	1017	1069	1123	1237	1302	1368	1465	1510	1546	1564	1594	1604	1618	1600	1591	1578	1567	1584	1579	1587	1537	1523	1508	1491	1458	1437	1416	1392	1369	1332	1297	1255	1264	1276	1301	1302	1303	1295	1258	1230	1206	1176	1114	1092	1070	1013	979	954	908	884	853	816	763	757	768	790	814	828	843	887	913	941	960	1070	1104	1136	1170	1174	1231	1235	1174	1130	1078	1093	1089	1087	1099	1120	1124	1108	1226	1231	1201	1158	1090	1102	1063	1045	1042	1030	1013	993	998	995	1000	1008	1013	1023	1041	1062	1084	1120	1128	1150	1174	1197	1252	1293	1328	1345	1358	1397	1425	1441	1479	1578	1556	1533	1521	1520	1537	1566	1617	1645	1678	1721	1856	1902	1855	1933	1965	1977	1986	1903	1891	1879	1830	1798	1766	1756	1737	1723	1708	1695	1685	1670	1694
-9999	-9999	-9999	-9999	-9999	-9999	-9999	-9999	-9999	-9999	-9999	-9999	-9999	-9999	-9999	-9999	-9999	-9999	-9999	-9999	-9999	-9999	-9999	-9999	-9999	-9999	-9999	-9999	-9999	-9999	-9999	-9999	-9999	-9999	-9999	-9999	-9999	-9999	-9999	-9999	1260	1221	1140	1091	1038	1018	971	931	880	783	729	685	652	611	602	606	606	606	622	658	724	769	828	950	1004	1069	1134	1258	1306	1352	1423	1401	1400	1427	1449	1486	1491	1517	1540	1585	1613	1643	1680	1740	1797	1874	1919	1961	2053	2111	2111	2063	2031	1980	1931	1809	1768	1732	1694	1614	1572	1528	1436	1390	1334	1277	1204	1181	1156	1146	1174	1204	1234	1322	1383	1439	1536	1577	1657	1693	1778	1824	1849	1952	2008	2050	2080	2158	2189	2159	2117	2105	2096	2095	2082	2081	2086	2099	2109	2171	2192	2209	2228	2255	2343	2399	2434	2413	2266	2176	2114	1995	1944	1899	1864	1773	1715	1665	1633	1563	1539	1503	1464	1444	1427	1406	1377	1367	1357	1351	1353	1357	1365	1384	1408	1419	1445	1456	1466	1489	1542	1546	1600	1664	1723	1757	1786	1854	1882	1909	1958	2022	2052	2045	2030	2026	2039	2053	2066	2083	2141	2140	2132	2136	2160	2171	2183	2196	2241	2217	2267	2253	2249	2254	2249	2113	2075	2049	1997	1982	1968	1959	1967	1982	1988	2052	2029	1998	1968	2034	2005	1983	1978	1982	1962	1913	1849	1908	1981	2027	1983	1979	1984	1989	1972	1947	1965	1956	1960	1965	1997	2004	2009	2016	2038	2050	2071	2127	2108	2106	2110	2130	2145	2165	2197	2228	2248	2266	2350	2312	2277	2204	2165	2129	2082	1995	1965	1937	1877	1846	1820	1801	1772	1768	1775	1728	1725	1724	1717	1684	1678	1677	1708	1740	1803	1811	1822	1847	1755	1601	1541	1486	1464	1542	1580	1557	1526	1507	1483	1456	1386	1318	1275	1236	1175	1120	1070	1027	1014	1001	990	997	1003	1023	1098	1145	1192	1239	1324	1375	1424	1514	1577	1641	1708	1828	1896	1972	2036	2033	2025	2024	1965	1935	1908	1834	1808	1783	1752	1683	1634	1568	1474	1439	1399	1366	1281	1226	1181	1089	1042	998	960	876	849	809	733	691	646	619	569	568	568	568	568	568	568	568	568	568	583	598	620	644	686	705	745	816	853	902	942	1019	1058	1093	1117	1207	1252	1342	1455	1499	1537	1559	1599	1608	1620	1610	1603	1591	1583	1602	1600	1604	1576	1563	1551	1535	1485	1472	1435	1391	1365	1339	1303	1303	1312	1324	1347	1346	1332	1320	1284	1263	1247	1232	1212	1187	1158	1080	1045	1001	928	909	879	839	776	758	763	788	803	821	834	859	882	904	960	972	1003	1035	1059	1087	1125	1137	1101	1079	1033	1045	1046	1046	1042	1067	1075	1058	1144	1144	1138	1106	1038	1019	994	1007	989	992	1007	991	992	1002	1016	1020	1028	1036	1067	1104	1129	1173	1176	1189	1207	1235	1244	1281	1415	1442	1452	1468	1444	1460	1510	1604	1586	1551	1531	1540	1551	1581	1641	1671	1710	1758	1934	1965	1962	2034	2036	2026	1986	1898	1884	1871	1827	1801	1786	1782	1774	1759	1742	1744	1729	1725	1734
-9999	-9999	-9999	-9999	-9999	-9999	-9999	-9999	-9999	-9999	-9999	-9999	-9999	-9999	-9999	-9999	-9999	-9999	-9999	-9999	-9999	-9999	-9999	-9999	-9999	-9999	-9999	-9999	-9999	-9999	-9999	-9999	-9999	-9999	-9999	-9999	-9999	-9999	-9999	-9999	1244	1210	1137	1092	1041	996	953	908	859	754	706	668	639	602	599	609	628	632	650	674	733	780	837	962	1022	1089	1152	1276	1326	1380	1484	1468	1448	1443	1463	1474	1489	1548	1577	1602	1629	1675	1724	1764	1842	1887	1947	1985	2091	2110	2043	1981	1970	1986	1950	1836	1778	1736	1652	1615	1564	1515	1408	1390	1332	1272	1192	1172	1150	1147	1171	1198	1232	1329	1366	1415	1513	1552	1594	1646	1743	1793	1844	2006	2016	2064	2097	2164	2167	2124	2087	2076	2069	2056	2054	2051	2052	2060	2079	2094	2123	2158	2176	2208	2282	2385	2406	2362	2262	2223	2183	2058	1990	1947	1928	1811	1764	1716	1621	1598	1570	1545	1511	1485	1457	1409	1392	1365	1354	1333	1333	1332	1334	1348	1364	1370	1411	1422	1431	1455	1497	1510	1551	1631	1664	1691	1700	1753	1831	1859	1933	1976	2004	2002	1996	1996	2004	2028	2034	2054	2129	2104	2099	2096	2086	2091	2099	2116	2096	2138	2215	2200	2190	2203	2225	2101	2053	2025	1975	1955	1936	1925	1933	1947	1951	1970	1943	1909	1871	1956	1938	1944	1930	1946	1926	1875	1806	1879	1969	1949	1944	1948	1946	1961	1947	1915	1877	1876	1884	1897	1920	1926	1931	1975	2003	2020	2054	2102	2085	2084	2085	2094	2109	2128	2177	2198	2216	2244	2369	2362	2319	2256	2207	2154	2092	2010	1983	1952	1902	1873	1848	1829	1807	1800	1780	1752	1747	1745	1744	1755	1747	1743	1772	1801	1833	1906	1882	1808	1717	1615	1572	1542	1545	1624	1624	1614	1586	1554	1523	1493	1419	1380	1330	1243	1200	1141	1092	1039	1017	1005	996	1005	1013	1027	1095	1130	1181	1266	1311	1359	1409	1506	1565	1634	1696	1825	1900	1968	2040	2034	2024	2018	1961	1930	1900	1831	1809	1782	1751	1693	1652	1599	1478	1444	1410	1378	1302	1252	1194	1082	1033	996	958	895	854	820	750	707	666	625	574	568	568	568	568	568	568	568	568	568	579	599	630	669	717	737	757	833	878	915	956	1036	1070	1108	1179	1224	1274	1333	1447	1499	1535	1589	1602	1605	1616	1617	1611	1600	1612	1620	1620	1620	1593	1580	1560	1538	1510	1483	1452	1401	1380	1373	1367	1398	1364	1373	1391	1379	1361	1345	1314	1299	1286	1275	1253	1227	1192	1115	1076	1033	970	949	925	900	818	771	767	788	796	811	809	844	862	882	923	932	964	983	1000	1033	1042	1037	989	984	971	936	935	935	984	1012	1019	1016	1050	1055	1067	1036	1008	984	965	992	1005	1029	1076	1086	1088	1092	1113	1108	1115	1085	1094	1144	1171	1220	1233	1251	1270	1287	1291	1321	1447	1487	1506	1507	1506	1521	1556	1647	1630	1599	1623	1597	1605	1620	1672	1704	1748	1812	2000	2026	2024	2083	2097	2053	2002	1916	1890	1882	1864	1856	1846	1852	1810	1788	1782	1797	1772	1764	1761
-9999	-9999	-9999	-9999	-9999	-9999	-9999	-9999	-9999	-9999	-9999	-9999	-9999	-9999	-9999	-9999	-9999	-9999	-9999	-9999	-9999	-9999	-9999	-9999	-9999	-9999	-9999	-9999	-9999	-9999	-9999	-9999	-9999	-9999	-9999	-9999	-9999	-9999	-9999	-9999	1203	1167	1096	1060	1033	942	909	863	830	732	689	656	630	598	600	612	639	649	665	683	757	806	857	983	1052	1116	1171	1287	1342	1410	1523	1561	1541	1525	1508	1515	1531	1575	1613	1635	1657	1734	1773	1806	1876	1902	1933	1975	2112	2052	1991	1922	1909	1897	1874	1840	1792	1762	1687	1641	1582	1530	1398	1342	1284	1197	1163	1141	1124	1142	1167	1197	1271	1316	1352	1394	1488	1540	1598	1700	1750	1801	1860	2065	2123	2159	2174	2147	2109	2070	2058	2037	2035	2020	2012	2009	2013	2022	2046	2067	2087	2128	2147	2180	2270	2395	2420	2353	2257	2212	2163	2084	2009	1976	1937	1847	1806	1764	1681	1646	1598	1568	1535	1503	1480	1436	1411	1392	1374	1332	1314	1304	1295	1320	1338	1342	1375	1382	1400	1448	1456	1485	1524	1589	1606	1635	1677	1706	1744	1760	1861	1879	1884	1909	1910	1961	1969	1993	2004	2041	2112	2071	2057	2050	2043	2043	2055	2071	2041	2109	2133	2090	2071	2122	2172	2101	2039	1996	1943	1921	1904	1895	1894	1905	1905	1926	1911	1869	1833	1919	1908	1884	1814	1827	1812	1772	1743	1886	1952	1904	1903	1920	1912	1930	1951	1897	1840	1831	1837	1848	1885	1888	1888	1911	1936	1970	2029	2033	2014	2040	2051	2054	2081	2100	2152	2167	2193	2270	2379	2439	2365	2277	2231	2183	2122	2090	2049	1992	1942	1918	1869	1857	1833	1819	1807	1796	1792	1788	1783	1779	1780	1782	1805	1830	1862	1937	1839	1779	1743	1666	1648	1655	1619	1671	1669	1677	1627	1593	1558	1526	1449	1402	1356	1249	1198	1148	1110	1053	1027	1020	1017	1027	1026	1031	1089	1122	1167	1262	1313	1360	1412	1510	1569	1635	1761	1825	1902	1956	2015	2026	2023	1988	1949	1925	1898	1828	1806	1775	1716	1695	1660	1612	1488	1454	1428	1392	1314	1261	1198	1088	1047	1005	959	901	870	836	753	714	670	626	581	567	568	568	568	568	568	568	568	568	569	590	635	686	741	770	800	864	897	922	962	1052	1077	1106	1195	1242	1292	1353	1459	1505	1539	1593	1606	1608	1611	1630	1625	1622	1642	1634	1637	1637	1609	1588	1571	1548	1517	1486	1455	1414	1403	1393	1427	1446	1464	1477	1469	1448	1430	1399	1383	1335	1324	1301	1281	1256	1187	1151	1111	1062	997	970	948	923	846	799	767	772	776	783	797	803	842	859	883	903	928	944	953	979	966	958	936	917	913	882	895	900	918	925	920	924	937	942	995	988	979	962	987	1043	1074	1091	1110	1151	1150	1160	1165	1156	1166	1175	1165	1204	1240	1317	1350	1313	1340	1347	1341	1356	1467	1531	1558	1548	1549	1565	1606	1663	1644	1631	1686	1700	1713	1720	1756	1790	1849	1997	2055	2095	2106	2140	2112	2057	2021	1944	1931	1934	1907	1893	1884	1878	1856	1871	1908	1872	1847	1831	1790
-9999	-9999	-9999	-9999	-9999	-9999	-9999	-9999	-9999	-9999	-9999	-9999	-9999	-9999	-9999	-9999	-9999	-9999	-9999	-9999	-9999	-9999	-9999	-9999	-9999	-9999	-9999	-9999	-9999	-9999	-9999	-9999	-9999	-9999	-9999	-9999	-9999	-9999	-9999	-9999	1173	1140	1069	1042	1018	942	904	858	812	715	678	654	612	597	602	615	644	662	682	732	776	821	872	1000	1064	1121	1252	1312	1377	1440	1549	1594	1606	1610	1570	1575	1592	1619	1648	1673	1698	1782	1814	1839	1905	1933	1965	2012	2125	2045	1952	1858	1832	1801	1818	1771	1743	1722	1671	1630	1583	1529	1390	1334	1274	1184	1146	1121	1109	1121	1146	1184	1285	1335	1380	1413	1506	1550	1596	1709	1760	1818	1896	2058	2098	2154	2143	2119	2087	2027	1998	1991	1976	1953	1947	1934	1975	1985	2014	2036	2073	2098	2119	2158	2282	2380	2403	2394	2271	2231	2177	2098	2055	2010	1970	1892	1862	1823	1725	1690	1648	1613	1557	1542	1520	1467	1439	1421	1393	1346	1325	1307	1291	1286	1287	1289	1307	1318	1335	1410	1421	1458	1481	1534	1551	1575	1630	1662	1690	1722	1809	1831	1833	1861	1868	1855	1876	1911	1944	1981	2041	2036	2019	2012	2003	2003	2016	2001	1985	2069	2072	2028	2031	2094	2139	2105	2007	1944	1884	1863	1848	1832	1856	1865	1858	1879	1861	1829	1784	1867	1869	1845	1775	1755	1753	1722	1732	1825	1825	1791	1848	1834	1823	1884	1939	1885	1783	1784	1796	1810	1834	1845	1847	1870	1903	1960	2023	2000	1979	1973	1961	1977	2003	2030	2085	2133	2167	2250	2341	2434	2438	2317	2259	2217	2169	2134	2093	2047	1997	1969	1933	1910	1902	1913	1890	1866	1828	1825	1809	1807	1811	1815	1838	1863	1896	1960	1860	1807	1779	1712	1709	1712	1738	1797	1788	1745	1657	1620	1576	1545	1457	1417	1369	1240	1199	1182	1152	1068	1042	1031	1025	1031	1033	1037	1085	1124	1171	1249	1299	1361	1410	1504	1564	1632	1761	1822	1898	1943	1998	2011	2015	1983	1955	1934	1909	1820	1792	1755	1695	1661	1632	1613	1520	1474	1442	1361	1318	1268	1209	1098	1058	1014	916	879	863	833	757	715	665	607	589	568	568	568	568	568	568	568	568	568	568	590	629	670	734	773	805	866	893	926	964	1044	1083	1114	1192	1247	1300	1355	1449	1497	1535	1591	1613	1613	1614	1634	1633	1635	1658	1672	1673	1665	1636	1625	1604	1551	1518	1487	1466	1434	1426	1422	1474	1495	1512	1521	1501	1481	1456	1423	1403	1385	1370	1332	1322	1309	1248	1184	1142	1092	1022	993	969	916	874	826	783	773	779	780	792	794	801	809	818	849	867	855	901	910	898	887	877	867	867	910	941	969	970	966	953	959	978	977	976	981	1009	1046	1079	1128	1127	1156	1158	1199	1212	1217	1219	1205	1218	1235	1211	1239	1274	1341	1384	1445	1472	1465	1440	1423	1507	1589	1602	1604	1609	1625	1655	1685	1664	1664	1722	1735	1756	1774	1799	1832	1906	2130	2209	2254	2219	2130	2101	2065	2013	1981	1971	1969	1949	1935	1923	1900	1894	1932	1973	1911	1891	1878	1875
-9999	-9999	-9999	-9999	-9999	-9999	-9999	-9999	-9999	-9999	-9999	-9999	-9999	-9999	-9999	-9999	-9999	-9999	-9999	-9999	-9999	-9999	-9999	-9999	-9999	-9999	-9999	-9999	-9999	-9999	-9999	-9999	-9999	-9999	-9999	-9999	-9999	-9999	-9999	-9999	1149	1111	1050	1023	992	919	882	841	798	700	666	635	598	594	599	613	646	671	692	749	789	832	880	1009	1060	1120	1258	1320	1384	1444	1544	1595	1650	1769	1806	1792	1763	1779	1694	1713	1795	1849	1869	1883	1929	1960	2017	2148	2110	2017	1935	1837	1809	1780	1752	1693	1659	1626	1563	1523	1542	1495	1373	1318	1261	1171	1130	1106	1096	1120	1150	1186	1266	1325	1391	1455	1578	1636	1683	1818	1905	1897	2017	2025	2018	2031	2091	2080	2046	1993	1961	1956	1940	1909	1899	1878	1859	1902	1938	1968	2027	2063	2094	2137	2297	2341	2360	2377	2313	2259	2198	2104	2065	2025	1947	1912	1878	1847	1781	1751	1729	1685	1659	1639	1562	1501	1470	1442	1413	1362	1342	1318	1290	1284	1282	1280	1282	1288	1307	1327	1351	1379	1392	1437	1459	1527	1588	1617	1633	1683	1750	1759	1788	1810	1811	1792	1810	1874	1913	1918	1996	1981	1950	1933	1898	1909	1914	1941	1938	2017	2008	1956	2008	2075	2085	2071	2024	1929	1849	1826	1816	1764	1774	1791	1758	1774	1756	1722	1733	1821	1823	1801	1764	1707	1699	1626	1713	1757	1758	1752	1788	1778	1801	1842	1837	1816	1734	1697	1711	1756	1799	1804	1809	1827	1881	1929	1966	1965	1940	1923	1915	1936	1966	1993	2066	2099	2136	2252	2282	2289	2334	2405	2320	2255	2199	2168	2132	2100	2067	2027	1994	1946	1954	1958	1923	1906	1899	1885	1862	1870	1873	1871	1928	1905	1951	1992	1884	1838	1805	1774	1770	1777	1836	1834	1788	1736	1651	1621	1587	1500	1460	1422	1388	1318	1240	1215	1122	1076	1054	1043	1028	1033	1036	1042	1085	1121	1160	1243	1299	1357	1412	1503	1553	1614	1741	1813	1887	1924	1987	1996	2003	1983	1962	1945	1905	1827	1791	1753	1708	1670	1641	1626	1563	1527	1475	1379	1327	1270	1213	1107	1063	1009	912	873	834	816	749	704	653	601	583	567	568	568	568	568	568	568	568	568	568	587	626	697	734	768	800	865	897	935	1009	1051	1095	1119	1197	1235	1288	1390	1442	1497	1533	1588	1612	1621	1621	1641	1642	1648	1676	1687	1686	1677	1656	1637	1607	1551	1528	1510	1497	1477	1467	1482	1514	1541	1547	1546	1527	1504	1476	1440	1425	1409	1390	1359	1345	1334	1280	1240	1195	1151	1065	1039	1020	937	898	850	811	776	784	787	794	798	798	803	810	825	834	832	843	861	868	894	909	930	971	961	1002	1032	1031	1019	1009	1028	1028	1026	1021	1022	1063	1121	1161	1182	1227	1288	1280	1280	1328	1334	1264	1251	1267	1300	1265	1271	1315	1381	1429	1508	1521	1500	1478	1460	1524	1609	1682	1720	1711	1744	1763	1748	1688	1694	1755	1769	1798	1814	1833	1872	1954	2192	2289	2272	2216	2132	2109	2092	2053	2050	2049	2039	1999	1961	1951	1928	1941	1993	2010	1946	1929	1919	1908
-9999	-9999	-9999	-9999	-9999	-9999	-9999	-9999	-9999	-9999	-9999	-9999	-9999	-9999	-9999	-9999	-9999	-9999	-9999	-9999	-9999	-9999	-9999	-9999	-9999	-9999	-9999	-9999	-9999	-9999	-9999	-9999	-9999	-9999	-9999	-9999	-9999	-9999	-9999	-9999	1128	1047	1026	998	966	899	860	817	774	686	652	627	594	591	596	609	640	671	703	791	830	868	887	986	1043	1114	1248	1319	1387	1437	1542	1599	1658	1798	1863	1886	1874	1890	1888	1891	2001	2021	1996	2014	2054	2017	2082	2118	2072	1989	1917	1827	1796	1766	1710	1677	1641	1596	1519	1478	1449	1373	1328	1279	1234	1146	1118	1094	1092	1119	1147	1183	1265	1324	1383	1442	1561	1617	1677	1872	1983	2066	2039	1988	1965	1947	1905	2008	1987	1950	1925	1912	1893	1857	1850	1822	1803	1847	1895	1941	2013	2043	2081	2140	2256	2260	2286	2379	2366	2279	2218	2122	2084	2042	1968	1932	1899	1863	1801	1788	1767	1727	1703	1669	1621	1572	1554	1533	1491	1467	1360	1332	1305	1293	1295	1280	1276	1272	1283	1308	1314	1338	1364	1384	1405	1425	1486	1503	1537	1600	1630	1639	1730	1759	1751	1740	1764	1832	1860	1855	1951	1944	1916	1900	1847	1860	1846	1827	1854	1905	1896	1863	1941	2029	2018	2013	1999	1931	1815	1778	1767	1722	1727	1744	1715	1723	1707	1670	1683	1732	1699	1686	1643	1637	1612	1582	1660	1695	1681	1709	1727	1696	1752	1772	1768	1763	1708	1659	1671	1732	1744	1736	1746	1755	1786	1813	1931	1927	1901	1878	1875	1909	1941	2015	2050	2090	2132	2240	2241	2253	2277	2367	2431	2439	2370	2313	2241	2158	2127	2091	2063	1986	2011	1990	1958	1942	1935	1921	1892	1916	1922	1909	1986	2096	2153	2020	1939	1912	1917	1853	1846	1847	1897	1838	1782	1741	1663	1622	1581	1511	1486	1458	1425	1342	1294	1246	1146	1106	1077	1060	1032	1036	1039	1059	1084	1114	1146	1244	1301	1355	1454	1505	1548	1602	1730	1785	1840	1922	1953	1971	1979	1964	1963	1952	1865	1830	1795	1761	1719	1686	1658	1638	1580	1536	1491	1385	1330	1273	1220	1124	1077	1022	920	874	822	792	728	684	654	604	585	568	568	568	568	568	568	568	568	568	568	584	618	696	732	768	804	869	898	937	1015	1049	1091	1127	1201	1228	1271	1389	1440	1495	1537	1587	1609	1630	1657	1661	1651	1662	1698	1702	1697	1684	1671	1640	1609	1554	1537	1521	1502	1495	1498	1514	1557	1573	1582	1573	1559	1542	1498	1462	1452	1436	1412	1383	1371	1358	1304	1263	1216	1172	1087	1064	1043	984	945	901	855	781	781	791	797	804	813	815	825	821	824	862	883	909	927	955	969	975	1012	1041	1103	1158	1170	1168	1151	1085	1084	1077	1071	1065	1120	1203	1226	1239	1254	1313	1345	1343	1382	1389	1354	1329	1364	1404	1361	1322	1417	1428	1486	1564	1555	1530	1507	1510	1549	1623	1688	1771	1774	1815	1809	1786	1756	1762	1824	1866	1878	1860	1870	1923	2011	2244	2332	2288	2222	2149	2130	2113	2078	2076	2065	2056	2038	2022	2011	2034	2075	2091	2070	2011	1963	1957	1942
-9999	-9999	-9999	-9999	-9999	-9999	-9999	-9999	-9999	-9999	-9999	-9999	-9999	-9999	-9999	-9999	-9999	-9999	-9999	-9999	-9999	-9999	-9999	-9999	-9999	-9999	-9999	-9999	-9999	-9999	-9999	-9999	-9999	-9999	-9999	-9999	-9999	-9999	-9999	-9999	-9999	1033	994	967	940	870	828	792	715	675	641	619	593	590	594	621	642	675	714	816	862	907	958	988	1047	1104	1236	1296	1349	1423	1548	1610	1672	1800	1862	1921	1965	2007	2013	2010	2075	2111	2067	2052	2129	2170	2221	2148	2082	2008	1914	1821	1788	1756	1697	1664	1632	1590	1496	1453	1413	1339	1308	1263	1214	1134	1099	1068	1086	1113	1140	1181	1279	1338	1398	1501	1562	1630	1703	1895	1993	2052	2003	1979	1949	1934	1884	1861	1845	1825	1803	1777	1768	1757	1792	1770	1761	1805	1858	1912	1994	2025	2075	2160	2213	2231	2261	2338	2367	2342	2293	2180	2140	2096	2019	1958	1919	1880	1841	1827	1810	1766	1735	1695	1657	1657	1643	1623	1590	1559	1494	1436	1370	1354	1344	1314	1284	1271	1270	1286	1287	1298	1329	1339	1359	1379	1435	1450	1490	1542	1574	1592	1613	1646	1644	1629	1702	1734	1795	1805	1905	1909	1881	1820	1802	1809	1787	1760	1810	1855	1779	1839	1878	1891	1886	1858	1901	1883	1748	1749	1713	1683	1666	1706	1684	1669	1654	1618	1645	1655	1627	1610	1581	1568	1560	1498	1575	1575	1555	1600	1613	1637	1690	1708	1695	1689	1675	1621	1630	1681	1700	1689	1693	1714	1738	1764	1812	1829	1805	1793	1822	1865	1918	1998	2036	2079	2136	2197	2198	2213	2264	2305	2400	2359	2392	2393	2295	2237	2215	2183	2160	2114	2081	2057	1980	1971	1963	1956	1943	1973	1961	1950	2078	2192	2178	2062	2028	2008	2015	2017	2016	2035	1938	1886	1835	1756	1678	1639	1601	1541	1512	1470	1433	1357	1312	1265	1156	1120	1093	1072	1055	1049	1050	1070	1090	1114	1144	1240	1293	1345	1444	1496	1547	1601	1718	1770	1823	1919	1948	1964	1968	1952	1945	1938	1892	1853	1811	1770	1725	1702	1675	1618	1585	1544	1496	1390	1351	1301	1191	1129	1077	1022	915	864	828	743	712	686	650	595	584	568	568	568	568	568	568	568	568	568	568	580	612	679	728	763	797	854	884	921	1016	1049	1083	1124	1194	1220	1256	1380	1432	1476	1521	1589	1616	1637	1665	1670	1680	1704	1727	1730	1728	1701	1675	1644	1609	1567	1548	1522	1526	1533	1549	1562	1583	1578	1593	1596	1579	1558	1537	1501	1488	1475	1438	1425	1393	1380	1324	1287	1240	1149	1107	1086	1065	1007	972	925	829	796	780	788	795	803	822	839	900	922	877	917	945	962	978	1009	1027	1025	1060	1104	1173	1220	1253	1225	1211	1206	1212	1227	1209	1155	1251	1271	1302	1297	1303	1342	1408	1413	1446	1432	1393	1373	1421	1446	1405	1368	1424	1471	1526	1595	1623	1594	1574	1544	1576	1627	1692	1817	1857	1880	1836	1813	1802	1822	1868	1919	1902	1887	1936	2009	2086	2257	2320	2332	2209	2177	2159	2143	2111	2103	2094	2071	2060	2040	2047	2096	2115	2106	2073	2048	2037	2028	2000
-9999	-9999	-9999	-9999	-9999	-9999	-9999	-9999	-9999	-9999	-9999	-9999	-9999	-9999	-9999	-9999	-9999	-9999	-9999	-9999	-9999	-9999	-9999	-9999	-9999	-9999	-9999	-9999	-9999	-9999	-9999	-9999	-9999	-9999	-9999	-9999	-9999	-9999	-9999	-9999	-9999	998	974	949	918	848	815	777	692	654	628	612	595	592	591	622	649	686	731	838	890	946	1023	1029	1046	1099	1223	1283	1334	1506	1559	1627	1700	1818	1877	1933	2048	2093	2123	2116	2102	2151	2174	2164	2211	2252	2236	2166	2106	2023	1912	1812	1775	1744	1680	1646	1610	1582	1497	1457	1416	1327	1287	1241	1195	1119	1091	1058	1079	1100	1130	1167	1275	1340	1405	1535	1623	1688	1716	1903	2003	2053	1993	1968	1938	1913	1867	1837	1811	1778	1760	1738	1724	1712	1719	1713	1715	1745	1802	1857	1971	2012	2083	2155	2184	2206	2242	2315	2354	2380	2272	2217	2168	2126	2047	2016	1984	1948	1931	1920	1910	1806	1761	1729	1725	1738	1733	1720	1680	1635	1572	1499	1415	1398	1377	1338	1317	1294	1265	1251	1251	1249	1263	1307	1315	1339	1381	1405	1440	1490	1517	1538	1553	1586	1586	1576	1648	1674	1677	1711	1790	1821	1812	1758	1759	1754	1734	1710	1777	1797	1733	1804	1812	1815	1813	1806	1844	1781	1720	1673	1629	1602	1566	1590	1554	1558	1600	1564	1595	1584	1572	1541	1523	1514	1507	1471	1527	1519	1506	1547	1549	1545	1548	1550	1546	1565	1564	1582	1595	1633	1650	1641	1643	1675	1697	1721	1770	1770	1761	1755	1807	1847	1896	1985	2051	2121	2163	2116	2159	2169	2215	2268	2351	2268	2315	2348	2333	2261	2243	2215	2198	2148	2122	2096	2062	2039	2023	2018	2048	2042	1995	2065	2145	2169	2169	2123	2103	2093	2101	2091	2084	2066	1970	1918	1867	1763	1716	1668	1630	1560	1519	1479	1443	1363	1315	1266	1164	1135	1107	1086	1066	1061	1065	1087	1106	1121	1149	1237	1277	1321	1413	1465	1523	1576	1682	1748	1815	1914	1947	1955	1955	1945	1941	1930	1885	1856	1820	1778	1727	1705	1672	1611	1574	1520	1485	1406	1364	1309	1188	1130	1084	1025	914	869	828	748	708	679	646	598	574	568	568	568	568	568	568	568	568	568	568	581	617	694	736	778	837	867	895	931	1031	1053	1079	1113	1169	1200	1245	1372	1423	1473	1522	1599	1622	1642	1667	1682	1701	1726	1750	1753	1745	1700	1671	1639	1613	1585	1571	1563	1591	1582	1603	1612	1607	1592	1609	1615	1599	1580	1560	1520	1503	1490	1460	1450	1441	1424	1363	1323	1281	1198	1135	1109	1082	1027	992	943	849	809	781	785	792	801	818	883	919	951	992	1039	1059	1070	1108	1136	1090	1087	1128	1193	1239	1313	1315	1281	1264	1296	1307	1301	1215	1206	1294	1376	1430	1414	1414	1430	1506	1475	1503	1475	1449	1423	1483	1477	1445	1420	1431	1479	1530	1610	1659	1631	1607	1617	1637	1671	1724	1852	1948	1916	1854	1835	1849	1859	1903	1952	1927	1903	1955	2005	2063	2235	2298	2335	2261	2239	2216	2205	2191	2173	2148	2088	2072	2056	2083	2143	2129	2122	2098	2078	2063	2052	2025
-9999	-9999	-9999	-9999	-9999	-9999	-9999	-9999	-9999	-9999	-9999	-9999	-9999	-9999	-9999	-9999	-9999	-9999	-9999	-9999	-9999	-9999	-9999	-9999	-9999	-9999	-9999	-9999	-9999	-9999	-9999	-9999	-9999	-9999	-9999	-9999	-9999	-9999	-9999	-9999	-9999	978	937	916	895	824	790	756	682	646	625	610	594	589	598	639	675	717	776	895	924	982	1093	1107	1102	1122	1265	1319	1373	1482	1542	1618	1678	1801	1866	1917	2028	2050	2046	2063	2107	2122	2196	2241	2267	2265	2220	2151	2090	2009	1848	1803	1772	1746	1670	1636	1598	1514	1476	1435	1383	1298	1256	1228	1134	1105	1080	1054	1082	1106	1138	1176	1271	1332	1398	1537	1611	1696	1792	1892	1984	2024	1959	1931	1914	1903	1856	1828	1797	1745	1721	1703	1690	1681	1701	1705	1711	1731	1775	1831	1935	1982	2027	2107	2137	2169	2223	2295	2335	2365	2304	2264	2203	2173	2096	2059	2023	1981	1968	1960	1951	1905	1881	1861	1883	1945	1956	1818	1763	1698	1643	1501	1451	1436	1406	1365	1331	1295	1257	1247	1241	1236	1241	1249	1267	1282	1305	1318	1337	1444	1456	1485	1495	1528	1534	1525	1594	1619	1621	1655	1732	1756	1758	1733	1703	1659	1644	1599	1653	1650	1697	1746	1732	1736	1731	1751	1771	1736	1683	1637	1591	1562	1518	1534	1503	1502	1483	1437	1486	1464	1435	1423	1467	1454	1449	1446	1461	1453	1480	1485	1487	1493	1491	1492	1486	1508	1512	1492	1513	1533	1534	1516	1570	1636	1657	1677	1729	1724	1715	1716	1792	1844	1890	2017	2044	2076	2117	2088	2086	2098	2146	2236	2192	2157	2198	2277	2311	2288	2263	2243	2225	2177	2156	2130	2085	2066	2063	2070	2076	2060	2043	2024	2011	2008	2016	2021	2080	2087	2091	2081	2070	2057	1984	1924	1873	1767	1718	1673	1634	1560	1522	1490	1408	1361	1318	1274	1189	1151	1115	1087	1078	1078	1087	1097	1114	1126	1192	1233	1280	1324	1431	1484	1530	1648	1702	1763	1824	1926	1947	1952	1953	1942	1937	1916	1871	1846	1813	1774	1725	1695	1658	1601	1559	1514	1495	1399	1345	1295	1187	1132	1068	1018	906	861	823	732	707	682	658	603	573	568	568	568	568	568	568	568	568	568	568	581	613	691	733	774	834	868	900	934	1023	1045	1081	1156	1183	1214	1243	1358	1420	1478	1562	1598	1634	1660	1675	1692	1720	1764	1775	1766	1743	1696	1668	1647	1610	1602	1593	1595	1642	1669	1666	1668	1635	1641	1656	1632	1622	1607	1585	1541	1525	1508	1482	1468	1457	1437	1377	1330	1297	1226	1194	1159	1124	1058	1020	971	876	818	785	780	789	798	818	897	944	991	1039	1111	1124	1133	1175	1197	1228	1258	1275	1324	1379	1442	1369	1342	1328	1386	1382	1331	1244	1248	1313	1395	1494	1478	1467	1507	1542	1594	1607	1572	1551	1538	1545	1537	1487	1465	1444	1500	1548	1692	1698	1668	1642	1658	1673	1708	1759	1853	1946	1980	1909	1905	1917	1925	1979	1984	1957	1921	1986	2010	2052	2219	2289	2340	2296	2270	2243	2228	2209	2195	2172	2140	2119	2124	2169	2159	2167	2151	2117	2096	2080	2070	2037
-9999	-9999	-9999	-9999	-9999	-9999	-9999	-9999	-9999	-9999	-9999	-9999	-9999	-9999	-9999	-9999	-9999	-9999	-9999	-9999	-9999	-9999	-9999	-9999	-9999	-9999	-9999	-9999	-9999	-9999	-9999	-9999	-9999	-9999	-9999	-9999	-9999	-9999	-9999	-9999	-9999	1002	971	912	832	795	762	737	667	643	624	597	589	590	604	655	691	737	796	919	980	1045	1160	1206	1226	1224	1275	1310	1359	1473	1537	1590	1655	1808	1849	1901	1997	2009	1997	2030	2065	2067	2074	2133	2150	2173	2201	2149	2072	1997	1854	1810	1778	1743	1665	1628	1590	1498	1453	1416	1378	1297	1255	1207	1135	1101	1073	1049	1076	1114	1151	1225	1270	1337	1401	1530	1595	1682	1923	1989	2015	2008	1936	1902	1875	1850	1826	1784	1751	1694	1681	1676	1667	1664	1692	1707	1709	1724	1756	1800	1905	1956	2012	2090	2125	2159	2190	2247	2274	2311	2440	2396	2285	2246	2153	2101	2066	2010	1998	1991	1982	1962	1931	1904	1959	2040	2053	1981	1840	1777	1706	1575	1541	1525	1448	1381	1350	1318	1290	1266	1255	1246	1228	1232	1243	1265	1274	1284	1302	1335	1354	1382	1414	1427	1437	1484	1538	1559	1560	1637	1671	1688	1690	1674	1639	1613	1588	1548	1583	1585	1610	1603	1598	1600	1601	1621	1695	1666	1620	1586	1549	1508	1476	1474	1450	1450	1433	1395	1433	1413	1385	1371	1354	1346	1343	1361	1351	1332	1427	1428	1426	1421	1435	1437	1432	1451	1452	1439	1460	1490	1486	1464	1527	1544	1563	1590	1641	1646	1639	1730	1785	1848	1910	1979	1984	2012	2057	2049	2048	2057	2106	2179	2121	2129	2148	2174	2210	2301	2294	2285	2273	2200	2185	2163	2116	2108	2118	2123	2086	2054	2018	1972	1963	1955	1949	1950	1944	1944	1958	1965	1959	1962	1975	1926	1871	1764	1709	1668	1632	1552	1518	1480	1401	1356	1322	1278	1194	1157	1132	1117	1104	1108	1116	1124	1119	1129	1196	1231	1283	1327	1430	1484	1534	1645	1696	1748	1810	1927	1939	1939	1925	1934	1918	1891	1850	1839	1805	1750	1719	1686	1651	1586	1547	1519	1446	1388	1330	1275	1176	1122	1066	1014	912	865	815	745	717	681	653	594	573	568	568	568	568	568	568	568	568	568	568	578	603	673	708	758	828	858	891	928	1018	1046	1081	1163	1194	1217	1244	1342	1412	1470	1566	1608	1647	1672	1699	1715	1742	1794	1792	1767	1739	1691	1669	1655	1624	1617	1617	1634	1696	1695	1690	1663	1663	1685	1683	1662	1657	1645	1600	1582	1567	1530	1497	1483	1472	1429	1385	1340	1312	1250	1218	1184	1145	1074	1035	983	890	848	805	784	790	800	834	909	954	1019	1072	1180	1190	1202	1242	1264	1302	1332	1357	1401	1460	1496	1492	1512	1529	1498	1436	1378	1274	1274	1325	1411	1543	1535	1532	1573	1578	1634	1656	1614	1592	1578	1570	1566	1560	1551	1504	1527	1578	1705	1742	1708	1679	1698	1719	1746	1823	1863	1936	2003	1964	1964	1966	1981	2007	2026	2000	1953	1994	2030	2115	2208	2288	2348	2329	2295	2266	2234	2213	2202	2192	2167	2153	2172	2197	2174	2179	2165	2120	2107	2093	2081	2053
-9999	-9999	-9999	-9999	-9999	-9999	-9999	-9999	-9999	-9999	-9999	-9999	-9999	-9999	-9999	-9999	-9999	-9999	-9999	-9999	-9999	-9999	-9999	-9999	-9999	-9999	-9999	-9999	-9999	-9999	-9999	-9999	-9999	-9999	-9999	-9999	-9999	-9999	-9999	-9999	-9999	1007	966	921	831	792	757	719	652	632	614	593	587	597	610	664	705	755	877	938	999	1065	1184	1226	1267	1311	1337	1367	1397	1496	1545	1599	1722	1784	1832	1886	1968	1968	1963	1997	2025	2032	2051	2099	2121	2150	2180	2149	2094	2013	1876	1829	1777	1741	1663	1618	1577	1505	1465	1427	1392	1317	1275	1227	1139	1109	1085	1052	1071	1098	1133	1250	1328	1400	1475	1578	1590	1655	1915	2017	2001	1974	1909	1877	1838	1812	1792	1758	1730	1680	1667	1657	1655	1653	1672	1702	1715	1727	1755	1832	1886	1940	1995	2063	2115	2155	2213	2243	2263	2304	2460	2454	2378	2324	2232	2184	2135	2097	2034	2021	2014	2027	1977	1950	2000	2069	2020	1945	1820	1759	1708	1617	1603	1577	1524	1478	1466	1433	1363	1344	1291	1275	1230	1223	1223	1232	1238	1249	1266	1291	1316	1334	1356	1372	1377	1388	1423	1427	1453	1521	1540	1618	1613	1591	1568	1563	1500	1495	1523	1506	1553	1537	1539	1529	1548	1555	1552	1516	1503	1475	1413	1386	1387	1419	1393	1390	1377	1347	1374	1355	1325	1319	1309	1298	1289	1303	1282	1287	1314	1313	1315	1309	1329	1339	1383	1398	1399	1391	1411	1445	1438	1421	1486	1502	1521	1542	1598	1605	1607	1704	1753	1808	1859	1875	1871	1930	2004	2006	2008	2017	2080	2127	2066	2084	2099	2121	2175	2286	2313	2311	2276	2257	2237	2228	2211	2210	2202	2125	2084	2047	1998	1925	1921	1910	1890	1889	1889	1889	1893	1887	1879	1905	1910	1899	1858	1756	1702	1663	1621	1532	1494	1457	1385	1354	1319	1280	1201	1169	1146	1125	1113	1119	1126	1131	1138	1156	1201	1235	1276	1320	1428	1481	1529	1629	1676	1735	1807	1912	1929	1927	1922	1932	1910	1880	1837	1814	1791	1731	1697	1659	1626	1577	1544	1520	1437	1388	1340	1284	1179	1136	1098	985	941	890	838	746	712	681	625	598	571	568	568	568	568	568	568	568	568	568	568	576	630	665	708	753	820	849	876	913	994	1032	1066	1152	1181	1216	1246	1336	1398	1458	1564	1614	1657	1675	1704	1728	1757	1804	1797	1783	1742	1693	1675	1668	1669	1675	1651	1684	1725	1718	1707	1685	1691	1701	1699	1678	1672	1655	1608	1595	1578	1556	1521	1504	1486	1439	1404	1366	1325	1267	1233	1201	1124	1086	1047	996	902	858	814	785	789	805	843	927	983	1038	1201	1288	1326	1282	1330	1347	1362	1399	1417	1486	1546	1563	1574	1619	1605	1507	1450	1404	1341	1345	1373	1458	1612	1651	1674	1619	1621	1678	1689	1637	1610	1600	1592	1592	1588	1592	1544	1549	1598	1706	1783	1777	1774	1781	1811	1857	1855	1895	1950	2014	2029	2019	2002	2026	2035	2041	2014	1960	1982	2027	2115	2199	2266	2326	2371	2321	2297	2270	2233	2220	2214	2193	2185	2210	2190	2188	2183	2159	2127	2122	2094	2071	2055
-9999	-9999	-9999	-9999	-9999	-9999	-9999	-9999	-9999	-9999	-9999	-9999	-9999	-9999	-9999	-9999	-9999	-9999	-9999	-9999	-9999	-9999	-9999	-9999	-9999	-9999	-9999	-9999	-9999	-9999	-9999	-9999	-9999	-9999	-9999	-9999	-9999	-9999	-9999	-9999	-9999	-9999	961	926	833	798	761	719	646	628	606	588	591	603	624	692	745	816	902	958	1016	1078	1194	1245	1300	1384	1406	1438	1466	1511	1587	1648	1737	1786	1846	1900	1894	1882	1903	1977	1988	2012	2035	2083	2107	2134	2128	2112	2086	2039	1903	1853	1807	1724	1683	1653	1616	1545	1499	1449	1423	1337	1279	1222	1128	1097	1085	1058	1060	1088	1128	1259	1335	1408	1486	1605	1673	1780	1938	1961	1935	1890	1861	1841	1808	1762	1748	1733	1712	1670	1656	1650	1652	1659	1680	1706	1722	1741	1765	1831	1873	1917	1964	2066	2113	2147	2199	2230	2260	2299	2421	2482	2415	2335	2293	2277	2247	2161	2128	2101	2135	2100	2073	2073	2081	2038	1976	1870	1825	1776	1730	1659	1635	1601	1590	1577	1560	1515	1433	1397	1368	1344	1296	1270	1244	1220	1215	1222	1230	1255	1277	1284	1303	1314	1321	1340	1363	1371	1405	1446	1458	1470	1478	1454	1437	1429	1400	1447	1467	1449	1496	1482	1483	1476	1497	1504	1499	1454	1433	1413	1362	1334	1334	1314	1291	1276	1269	1273	1261	1303	1275	1271	1258	1247	1255	1253	1238	1246	1256	1253	1252	1251	1273	1288	1284	1311	1315	1320	1317	1367	1391	1373	1434	1458	1479	1500	1541	1539	1581	1683	1722	1757	1793	1814	1833	1889	1916	1919	1912	1943	2063	2050	2031	2038	2055	2087	2134	2250	2317	2382	2351	2304	2282	2265	2254	2241	2214	2121	2075	2034	1992	1906	1870	1882	1846	1840	1839	1833	1824	1818	1817	1850	1871	1868	1840	1747	1696	1654	1571	1527	1486	1448	1384	1346	1306	1241	1207	1179	1159	1130	1121	1124	1136	1138	1149	1169	1209	1244	1285	1329	1425	1478	1533	1650	1703	1754	1793	1907	1924	1920	1917	1922	1901	1871	1824	1808	1785	1725	1686	1646	1618	1574	1544	1513	1442	1410	1375	1334	1207	1159	1114	995	944	897	846	755	712	683	628	606	577	568	568	568	568	568	568	568	568	568	568	575	627	665	706	747	808	837	870	936	977	1018	1053	1143	1176	1200	1272	1322	1390	1451	1568	1617	1655	1694	1708	1732	1762	1805	1799	1796	1760	1708	1700	1698	1716	1724	1740	1759	1742	1737	1735	1732	1715	1723	1718	1696	1681	1660	1615	1603	1583	1560	1524	1505	1486	1447	1413	1377	1346	1289	1258	1225	1138	1094	1055	1004	910	864	822	784	789	811	850	934	990	1040	1200	1280	1365	1410	1472	1494	1499	1532	1570	1561	1616	1649	1661	1666	1563	1513	1469	1434	1380	1391	1404	1551	1617	1688	1725	1695	1730	1730	1681	1667	1650	1610	1612	1616	1628	1632	1580	1588	1631	1713	1793	1828	1813	1837	1878	1909	1950	1971	2010	2082	2112	2093	2036	2060	2064	2051	2032	1974	1978	2015	2112	2182	2251	2325	2376	2327	2307	2292	2280	2270	2264	2238	2227	2216	2200	2192	2187	2161	2130	2126	2094	2063	2050
-9999	-9999	-9999	-9999	-9999	-9999	-9999	-9999	-9999	-9999	-9999	-9999	-9999	-9999	-9999	-9999	-9999	-9999	-9999	-9999	-9999	-9999	-9999	-9999	-9999	-9999	-9999	-9999	-9999	-9999	-9999	-9999	-9999	-9999	-9999	-9999	-9999	-9999	-9999	-9999	-9999	-9999	956	922	838	799	762	666	637	622	600	589	595	612	633	710	772	843	982	1045	1100	1153	1236	1287	1322	1434	1472	1499	1520	1559	1597	1661	1786	1835	1880	1885	1857	1840	1867	1923	1948	1973	2000	2042	2071	2121	2107	2077	2043	2000	1930	1890	1846	1764	1722	1683	1635	1537	1467	1412	1335	1277	1218	1168	1083	1058	1053	1038	1053	1089	1134	1279	1348	1414	1566	1660	1700	1753	1960	1940	1904	1850	1759	1721	1696	1643	1646	1660	1692	1661	1648	1645	1662	1678	1707	1731	1729	1752	1776	1840	1876	1922	1966	2065	2096	2126	2173	2214	2251	2288	2392	2501	2531	2440	2406	2398	2388	2238	2194	2178	2191	2139	2128	2132	2079	2030	1994	1914	1874	1830	1794	1695	1668	1651	1671	1661	1632	1590	1509	1455	1434	1361	1332	1306	1282	1243	1230	1219	1201	1199	1209	1217	1255	1265	1280	1290	1313	1323	1349	1381	1391	1396	1400	1388	1376	1370	1356	1355	1362	1358	1378	1372	1383	1378	1445	1445	1434	1394	1362	1350	1302	1289	1280	1264	1245	1226	1222	1220	1210	1198	1188	1186	1180	1168	1160	1196	1201	1199	1204	1203	1202	1199	1217	1230	1230	1258	1260	1274	1314	1326	1302	1300	1345	1359	1388	1412	1423	1488	1542	1640	1680	1705	1757	1745	1806	1844	1863	1861	1876	1962	2059	2017	1964	1963	1984	2025	2076	2201	2294	2410	2422	2385	2350	2314	2285	2254	2214	2130	2081	2041	1998	1918	1875	1833	1788	1775	1762	1745	1713	1748	1768	1793	1817	1815	1801	1733	1687	1643	1566	1527	1485	1440	1381	1344	1305	1241	1210	1187	1170	1145	1137	1130	1139	1143	1158	1174	1215	1253	1290	1388	1435	1489	1550	1663	1717	1778	1893	1927	1930	1922	1903	1901	1892	1837	1820	1798	1775	1719	1680	1639	1614	1572	1538	1501	1438	1405	1369	1330	1225	1175	1121	1012	965	919	856	763	716	682	631	610	580	568	568	568	568	568	568	568	568	568	568	574	617	663	701	740	801	829	860	928	964	994	1035	1128	1166	1195	1271	1317	1381	1447	1572	1618	1659	1703	1733	1753	1776	1797	1797	1803	1741	1733	1728	1731	1752	1757	1764	1758	1751	1754	1750	1757	1769	1767	1734	1718	1703	1682	1636	1611	1588	1562	1522	1502	1483	1453	1421	1388	1358	1292	1265	1227	1140	1100	1057	1004	916	874	836	788	791	822	859	941	994	1046	1185	1278	1363	1424	1512	1557	1596	1622	1645	1699	1752	1794	1736	1673	1580	1545	1500	1467	1416	1426	1439	1544	1618	1690	1748	1745	1761	1731	1690	1687	1674	1658	1665	1674	1710	1695	1670	1626	1673	1740	1805	1879	1876	1907	1947	1960	1996	2010	2049	2167	2132	2113	2098	2102	2113	2090	2044	2017	1995	2004	2113	2189	2262	2331	2374	2337	2321	2310	2296	2284	2277	2241	2222	2210	2204	2201	2191	2157	2115	2093	2086	2057	2049
-9999	-9999	-9999	-9999	-9999	-9999	-9999	-9999	-9999	-9999	-9999	-9999	-9999	-9999	-9999	-9999	-9999	-9999	-9999	-9999	-9999	-9999	-9999	-9999	-9999	-9999	-9999	-9999	-9999	-9999	-9999	-9999	-9999	-9999	-9999	-9999	-9999	-9999	-9999	-9999	-9999	-9999	947	905	828	786	741	652	624	614	599	587	601	622	679	731	797	869	1013	1079	1138	1216	1258	1314	1370	1485	1526	1564	1637	1684	1665	1713	1810	1856	1861	1834	1808	1792	1830	1898	1922	1950	1974	2028	2058	2108	2109	2064	2025	1976	1872	1854	1832	1780	1732	1683	1625	1492	1419	1363	1288	1241	1187	1139	1057	1032	1020	1042	1075	1115	1155	1297	1366	1438	1559	1648	1732	1799	1932	1919	1874	1780	1729	1688	1653	1629	1630	1639	1641	1638	1636	1648	1700	1739	1740	1767	1756	1772	1803	1864	1902	1936	1977	2061	2092	2118	2176	2213	2253	2307	2438	2488	2555	2657	2617	2568	2453	2326	2289	2268	2226	2194	2184	2206	2087	2050	2025	1947	1904	1866	1831	1785	1779	1826	1817	1787	1733	1652	1575	1521	1500	1409	1385	1350	1319	1273	1256	1238	1204	1200	1196	1193	1203	1214	1221	1230	1244	1243	1300	1322	1325	1326	1328	1323	1322	1320	1307	1311	1311	1338	1331	1326	1337	1333	1341	1330	1304	1284	1259	1246	1255	1238	1233	1211	1195	1187	1186	1173	1161	1155	1144	1145	1146	1138	1124	1118	1112	1109	1105	1116	1122	1146	1173	1187	1183	1213	1212	1223	1280	1277	1259	1263	1300	1317	1341	1357	1369	1419	1462	1530	1553	1590	1625	1698	1755	1786	1816	1813	1858	1960	2015	1962	1924	1921	1946	1994	2121	2210	2338	2449	2420	2394	2364	2311	2290	2248	2214	2139	2091	2045	1969	1927	1885	1841	1765	1749	1740	1724	1669	1643	1647	1667	1683	1693	1689	1659	1668	1630	1558	1514	1471	1434	1374	1336	1301	1241	1212	1191	1174	1153	1143	1148	1157	1164	1175	1190	1232	1259	1305	1400	1442	1494	1549	1666	1727	1795	1902	1920	1921	1918	1898	1890	1879	1830	1801	1776	1751	1699	1664	1639	1591	1569	1530	1492	1426	1393	1360	1275	1213	1164	1113	1007	974	933	826	773	724	688	635	616	581	568	568	568	568	568	568	568	568	568	568	571	612	658	701	728	773	802	834	900	931	968	1031	1111	1146	1182	1268	1318	1382	1453	1571	1620	1656	1709	1737	1756	1785	1787	1810	1806	1777	1783	1793	1772	1777	1771	1772	1763	1760	1763	1761	1781	1783	1777	1746	1730	1713	1691	1641	1616	1585	1532	1509	1492	1470	1451	1422	1400	1328	1295	1264	1226	1142	1093	1049	958	911	874	841	789	795	826	898	939	990	1055	1189	1286	1366	1417	1513	1562	1622	1696	1723	1779	1821	1809	1740	1683	1587	1571	1569	1526	1487	1499	1524	1565	1602	1680	1747	1792	1775	1750	1711	1710	1698	1681	1696	1703	1753	1742	1716	1695	1734	1809	1859	1903	2040	2004	2034	2038	2033	2047	2079	2185	2147	2124	2113	2121	2128	2118	2069	2039	2018	2043	2141	2207	2289	2413	2390	2352	2343	2333	2309	2293	2258	2239	2220	2209	2199	2192	2180	2122	2102	2084	2056	2049	2047
-9999	-9999	-9999	-9999	-9999	-9999	-9999	-9999	-9999	-9999	-9999	-9999	-9999	-9999	-9999	-9999	-9999	-9999	-9999	-9999	-9999	-9999	-9999	-9999	-9999	-9999	-9999	-9999	-9999	-9999	-9999	-9999	-9999	-9999	-9999	-9999	-9999	-9999	-9999	-9999	-9999	-9999	937	896	828	781	736	651	623	599	590	590	612	630	701	749	816	886	1036	1106	1163	1231	1278	1342	1393	1507	1555	1589	1662	1700	1744	1769	1806	1789	1764	1740	1768	1760	1806	1867	1889	1927	1981	2008	2043	2079	2144	2111	2033	1919	1873	1812	1765	1653	1613	1594	1575	1476	1407	1342	1239	1198	1154	1109	1024	999	998	1047	1080	1111	1154	1266	1325	1403	1558	1611	1661	1754	1913	1903	1852	1754	1707	1669	1643	1630	1637	1643	1635	1634	1637	1649	1705	1757	1824	1866	1856	1875	1895	1942	1930	1953	2029	2067	2098	2124	2185	2221	2269	2393	2420	2458	2521	2655	2641	2609	2529	2482	2430	2394	2382	2357	2280	2192	2109	2073	2044	1970	1928	1895	1867	1825	1838	1882	1875	1826	1786	1781	1674	1639	1601	1535	1485	1400	1364	1305	1287	1258	1229	1221	1212	1201	1189	1193	1189	1199	1208	1206	1209	1218	1222	1223	1221	1222	1227	1270	1258	1267	1262	1282	1272	1279	1287	1271	1279	1273	1249	1237	1211	1201	1168	1161	1153	1116	1118	1126	1157	1136	1118	1110	1106	1109	1107	1110	1101	1090	1085	1075	1077	1083	1084	1082	1097	1104	1111	1113	1111	1179	1233	1222	1207	1233	1260	1278	1293	1307	1330	1378	1420	1469	1492	1537	1555	1610	1652	1668	1685	1735	1789	1923	1963	1923	1884	1883	1907	1959	2130	2232	2357	2359	2413	2405	2363	2306	2274	2243	2214	2145	2093	2055	1974	1933	1893	1856	1776	1741	1721	1675	1642	1598	1590	1615	1626	1627	1630	1629	1608	1596	1530	1489	1453	1391	1364	1327	1295	1238	1213	1193	1178	1156	1150	1152	1161	1168	1179	1196	1243	1280	1327	1423	1470	1527	1583	1677	1744	1816	1900	1909	1913	1913	1886	1873	1858	1817	1794	1765	1736	1676	1649	1616	1572	1544	1510	1477	1402	1382	1347	1263	1211	1163	1112	1019	981	928	831	777	733	696	643	621	595	568	568	568	568	568	568	568	568	568	568	568	615	663	705	761	780	800	821	871	912	947	1026	1084	1136	1177	1286	1347	1394	1456	1572	1623	1656	1714	1737	1764	1790	1796	1809	1801	1796	1801	1813	1816	1799	1793	1795	1789	1784	1772	1772	1790	1796	1788	1757	1739	1714	1690	1636	1612	1579	1525	1500	1483	1461	1435	1414	1388	1327	1290	1255	1223	1145	1097	1049	955	912	877	843	789	791	824	895	931	976	1044	1187	1250	1324	1446	1492	1535	1583	1719	1770	1810	1858	1812	1755	1698	1633	1619	1577	1527	1524	1537	1561	1613	1627	1670	1731	1828	1823	1787	1740	1735	1723	1706	1716	1741	1799	1791	1768	1734	1766	1844	1895	1933	2043	2162	2162	2131	2107	2111	2133	2218	2167	2146	2133	2156	2163	2149	2090	2054	2048	2077	2162	2227	2308	2438	2421	2407	2411	2352	2323	2302	2272	2248	2223	2216	2202	2186	2168	2109	2091	2076	2054	2050	2052
-9999	-9999	-9999	-9999	-9999	-9999	-9999	-9999	-9999	-9999	-9999	-9999	-9999	-9999	-9999	-9999	-9999	-9999	-9999	-9999	-9999	-9999	-9999	-9999	-9999	-9999	-9999	-9999	-9999	-9999	-9999	-9999	-9999	-9999	-9999	-9999	-9999	-9999	-9999	-9999	-9999	-9999	-9999	894	820	776	728	655	622	595	582	595	614	630	706	768	836	912	1067	1125	1164	1240	1296	1357	1408	1527	1579	1600	1659	1694	1730	1753	1769	1737	1713	1703	1692	1703	1735	1809	1841	1875	1967	1996	2041	2056	2147	2107	2034	1909	1874	1833	1774	1642	1576	1534	1506	1449	1378	1314	1211	1155	1106	1011	999	978	994	1045	1082	1123	1221	1270	1344	1419	1577	1659	1711	1766	1868	1820	1773	1696	1657	1634	1632	1641	1633	1635	1637	1644	1657	1669	1728	1803	1858	1910	1910	1926	1944	1972	1982	2004	2064	2093	2121	2150	2200	2234	2275	2350	2400	2457	2532	2607	2604	2589	2601	2585	2534	2487	2486	2425	2361	2214	2156	2120	2087	2024	1957	1929	1896	1886	1891	1925	1932	1882	1860	1778	1742	1692	1644	1555	1511	1460	1430	1395	1394	1362	1306	1253	1239	1222	1191	1186	1181	1179	1181	1179	1179	1176	1178	1174	1178	1180	1189	1197	1202	1205	1190	1177	1188	1232	1234	1213	1216	1215	1197	1186	1164	1155	1137	1122	1117	1097	1097	1103	1105	1087	1078	1066	1053	1061	1082	1091	1076	1067	1062	1050	1048	1055	1054	1055	1059	1066	1071	1073	1070	1081	1134	1134	1141	1163	1178	1192	1251	1261	1300	1340	1398	1416	1437	1478	1497	1561	1599	1621	1617	1680	1735	1860	1868	1827	1793	1816	1878	1957	2143	2255	2298	2279	2327	2394	2374	2299	2265	2237	2211	2151	2107	2064	1988	1943	1910	1878	1792	1761	1714	1642	1608	1561	1543	1552	1564	1567	1571	1579	1574	1557	1505	1468	1437	1373	1333	1307	1280	1229	1213	1200	1173	1165	1155	1155	1164	1171	1183	1229	1257	1300	1344	1438	1489	1541	1650	1715	1779	1830	1873	1872	1891	1872	1864	1840	1819	1788	1764	1739	1712	1658	1628	1595	1552	1525	1492	1462	1382	1353	1318	1238	1196	1155	1105	1034	986	937	837	788	739	703	651	628	605	568	568	568	568	568	568	568	568	568	568	568	619	664	701	754	774	781	808	902	945	982	1069	1110	1153	1192	1300	1362	1421	1517	1568	1611	1649	1706	1734	1765	1780	1801	1806	1806	1819	1826	1831	1816	1806	1806	1805	1800	1796	1795	1802	1814	1827	1803	1759	1731	1704	1679	1629	1607	1574	1518	1493	1472	1453	1426	1406	1380	1315	1279	1247	1213	1138	1092	1046	967	926	884	846	791	792	815	886	926	969	1030	1182	1232	1301	1422	1468	1500	1547	1671	1721	1777	1870	1830	1781	1721	1680	1641	1594	1563	1558	1573	1601	1652	1667	1689	1802	1839	1846	1815	1813	1808	1783	1743	1767	1818	1848	1837	1820	1788	1841	1888	1927	1954	2055	2155	2206	2160	2147	2142	2163	2236	2212	2203	2190	2205	2197	2175	2109	2081	2088	2114	2192	2254	2335	2460	2441	2434	2422	2342	2314	2303	2281	2269	2247	2246	2217	2197	2179	2116	2093	2082	2070	2068	2081
-9999	-9999	-9999	-9999	-9999	-9999	-9999	-9999	-9999	-9999	-9999	-9999	-9999	-9999	-9999	-9999	-9999	-9999	-9999	-9999	-9999	-9999	-9999	-9999	-9999	-9999	-9999	-9999	-9999	-9999	-9999	-9999	-9999	-9999	-9999	-9999	-9999	-9999	-9999	-9999	-9999	-9999	945	861	821	770	727	653	624	598	579	596	615	631	712	768	837	991	1062	1107	1140	1223	1281	1337	1387	1525	1563	1590	1635	1675	1713	1724	1728	1693	1665	1660	1650	1664	1694	1769	1818	1852	1936	1978	2021	2064	2036	2005	2014	1892	1833	1778	1732	1633	1575	1513	1457	1410	1350	1283	1174	1127	1084	1000	975	965	983	1050	1093	1142	1250	1309	1376	1418	1563	1651	1724	1846	1826	1786	1749	1667	1631	1607	1601	1611	1625	1627	1659	1668	1691	1738	1789	1845	1886	1949	1958	1969	1988	2004	2014	2030	2078	2106	2133	2165	2221	2268	2304	2374	2443	2521	2541	2534	2521	2520	2546	2602	2624	2600	2573	2513	2482	2282	2194	2152	2118	2051	2025	2001	2019	2046	2049	2041	1986	1943	1898	1809	1770	1725	1673	1579	1529	1493	1490	1443	1446	1416	1349	1338	1323	1285	1270	1250	1236	1207	1186	1182	1178	1171	1166	1163	1158	1157	1163	1174	1178	1181	1169	1150	1153	1146	1145	1138	1121	1117	1119	1147	1127	1117	1111	1101	1089	1083	1083	1085	1085	1068	1063	1056	1043	1043	1044	1040	1038	1029	1023	1017	1025	1026	1028	1034	1032	1034	1035	1044	1050	1060	1092	1102	1107	1123	1134	1142	1165	1190	1215	1239	1281	1299	1390	1420	1450	1508	1546	1567	1572	1627	1689	1811	1804	1766	1738	1784	1853	1937	2107	2183	2226	2213	2225	2333	2386	2295	2257	2230	2206	2150	2111	2067	1991	1949	1913	1879	1787	1744	1697	1623	1561	1502	1461	1440	1434	1497	1515	1524	1525	1519	1472	1445	1419	1350	1318	1294	1270	1228	1214	1204	1188	1175	1171	1164	1178	1187	1192	1238	1272	1314	1356	1454	1500	1551	1661	1725	1790	1826	1859	1856	1877	1859	1848	1806	1767	1720	1692	1673	1664	1626	1592	1566	1525	1494	1463	1400	1363	1337	1304	1230	1187	1146	1067	1028	981	936	842	795	746	709	657	635	613	568	568	568	568	568	568	568	568	568	568	568	616	660	689	723	747	781	813	908	954	998	1084	1121	1161	1198	1308	1372	1426	1515	1560	1592	1629	1699	1736	1757	1790	1809	1819	1841	1842	1842	1841	1820	1814	1820	1822	1822	1825	1846	1842	1846	1829	1803	1754	1725	1698	1649	1628	1605	1574	1509	1487	1464	1431	1412	1390	1362	1299	1270	1241	1183	1143	1099	1054	969	932	899	855	798	793	803	862	915	962	1011	1160	1213	1273	1376	1427	1477	1541	1680	1736	1792	1877	1844	1802	1800	1730	1692	1652	1621	1620	1603	1627	1698	1710	1729	1816	1851	1859	1838	1844	1832	1811	1775	1800	1844	1921	1921	1895	1877	1957	1972	1979	1973	2074	2168	2271	2198	2182	2178	2195	2255	2233	2226	2219	2252	2227	2202	2177	2167	2172	2199	2260	2340	2372	2450	2432	2420	2365	2331	2297	2279	2266	2277	2263	2265	2246	2223	2210	2167	2156	2156	2147	2161	2160
-9999	-9999	-9999	-9999	-9999	-9999	-9999	-9999	-9999	-9999	-9999	-9999	-9999	-9999	-9999	-9999	-9999	-9999	-9999	-9999	-9999	-9999	-9999	-9999	-9999	-9999	-9999	-9999	-9999	-9999	-9999	-9999	-9999	-9999	-9999	-9999	-9999	-9999	-9999	-9999	-9999	-9999	958	865	822	765	722	647	616	594	578	585	617	633	710	759	825	976	1046	1076	1101	1194	1257	1321	1429	1501	1540	1560	1569	1610	1643	1640	1648	1653	1620	1610	1608	1627	1699	1738	1789	1820	1912	1972	2025	2027	1970	1953	1919	1826	1810	1721	1664	1559	1506	1500	1395	1375	1318	1260	1141	1095	1055	979	962	965	990	1055	1105	1160	1260	1313	1378	1430	1581	1652	1700	1836	1805	1767	1733	1647	1611	1586	1573	1595	1619	1625	1677	1686	1718	1816	1857	1905	1941	2032	2042	2011	2031	2035	2043	2057	2098	2124	2149	2203	2237	2277	2316	2402	2461	2467	2456	2424	2414	2403	2448	2466	2498	2591	2551	2535	2522	2405	2294	2222	2157	2104	2087	2095	2133	2122	2103	2085	2004	1953	1911	1826	1785	1748	1698	1590	1559	1561	1542	1493	1513	1485	1414	1391	1381	1347	1324	1298	1278	1245	1239	1230	1220	1205	1200	1203	1173	1160	1151	1152	1153	1150	1147	1132	1127	1124	1121	1114	1106	1099	1093	1087	1084	1082	1076	1073	1071	1072	1074	1074	1068	1056	1051	1052	1048	1052	1055	1052	1043	1039	1035	1021	1014	1010	1009	1004	1002	1000	996	1025	1031	1039	1061	1074	1079	1091	1094	1106	1117	1148	1166	1188	1225	1247	1278	1295	1361	1401	1430	1452	1529	1606	1656	1751	1739	1717	1703	1755	1823	1921	2072	2128	2157	2172	2185	2206	2267	2378	2318	2235	2173	2150	2108	2064	1982	1944	1904	1826	1781	1733	1687	1596	1537	1483	1416	1409	1391	1394	1420	1431	1439	1435	1404	1417	1394	1335	1306	1282	1261	1230	1221	1210	1195	1185	1179	1173	1183	1194	1209	1261	1292	1330	1378	1475	1527	1565	1678	1737	1791	1817	1839	1845	1865	1864	1850	1800	1762	1703	1670	1640	1582	1546	1520	1505	1462	1435	1440	1378	1345	1323	1293	1224	1184	1143	1061	1024	979	932	843	798	760	696	667	646	624	567	568	568	568	568	568	568	568	568	568	583	606	640	669	724	743	770	806	890	938	984	1087	1121	1153	1199	1296	1356	1409	1492	1537	1566	1606	1690	1729	1765	1800	1815	1831	1859	1889	1874	1868	1852	1856	1870	1912	1873	1880	1894	1867	1850	1824	1800	1752	1724	1694	1651	1633	1614	1580	1501	1474	1462	1437	1428	1412	1385	1311	1289	1263	1188	1147	1104	1059	979	941	906	822	800	794	806	868	902	933	1038	1109	1199	1264	1393	1447	1498	1613	1671	1726	1801	1895	1864	1831	1836	1753	1719	1691	1662	1654	1670	1699	1771	1792	1802	1861	1870	1870	1860	1872	1862	1841	1810	1830	1864	1943	1968	1934	1914	1993	2000	2004	2010	2107	2208	2311	2271	2244	2206	2224	2278	2262	2249	2260	2298	2260	2236	2209	2202	2204	2226	2293	2383	2418	2378	2358	2352	2330	2308	2293	2283	2279	2285	2291	2275	2265	2255	2243	2219	2215	2206	2187	2187	2184
-9999	-9999	-9999	-9999	-9999	-9999	-9999	-9999	-9999	-9999	-9999	-9999	-9999	-9999	-9999	-9999	-9999	-9999	-9999	-9999	-9999	-9999	-9999	-9999	-9999	-9999	-9999	-9999	-9999	-9999	-9999	-9999	-9999	-9999	-9999	-9999	-9999	-9999	-9999	-9999	-9999	-9999	-9999	864	815	761	713	643	608	592	578	580	607	629	692	743	797	924	1021	1044	1070	1167	1232	1294	1421	1487	1524	1544	1529	1566	1590	1582	1585	1556	1528	1529	1542	1574	1669	1721	1764	1803	1894	1960	1993	1944	1907	1890	1860	1756	1747	1694	1590	1540	1470	1415	1319	1253	1210	1126	1082	1070	1035	964	955	968	994	1065	1113	1162	1269	1332	1396	1459	1575	1658	1725	1830	1809	1757	1716	1620	1595	1566	1554	1573	1598	1619	1685	1703	1751	1837	1883	1937	1975	2071	2081	2084	2100	2101	2108	2118	2151	2170	2165	2222	2256	2293	2346	2412	2393	2390	2381	2379	2379	2367	2413	2412	2412	2471	2455	2454	2447	2474	2484	2336	2218	2240	2217	2197	2204	2166	2140	2068	2008	1964	1921	1835	1794	1754	1708	1661	1662	1672	1618	1602	1618	1543	1470	1456	1454	1404	1378	1348	1332	1289	1278	1263	1250	1243	1244	1237	1216	1210	1194	1178	1173	1166	1141	1142	1135	1132	1120	1120	1115	1105	1094	1089	1086	1081	1078	1075	1070	1067	1071	1075	1077	1072	1073	1063	1070	1077	1077	1081	1071	1065	1063	1048	1037	1033	1026	1024	1023	1017	992	990	992	1006	1017	1024	1020	1061	1059	1072	1072	1111	1124	1138	1170	1197	1223	1246	1319	1348	1376	1411	1472	1524	1591	1624	1605	1603	1680	1738	1806	1887	2022	2096	2116	2134	2145	2165	2203	2330	2351	2262	2169	2148	2105	2059	1971	1935	1897	1809	1774	1712	1669	1572	1514	1457	1390	1379	1367	1363	1383	1398	1404	1389	1376	1364	1347	1307	1289	1272	1244	1231	1225	1213	1201	1192	1185	1186	1189	1201	1217	1276	1306	1343	1437	1490	1544	1604	1694	1744	1784	1803	1813	1836	1851	1854	1837	1789	1752	1687	1654	1616	1552	1518	1497	1488	1437	1408	1393	1340	1316	1289	1258	1208	1180	1137	1057	1016	970	929	844	802	765	704	675	654	633	570	568	568	568	568	568	568	568	568	568	589	606	628	658	714	734	765	841	882	928	978	1075	1114	1146	1214	1278	1329	1359	1402	1443	1538	1621	1664	1711	1755	1806	1822	1847	1898	1911	1902	1895	1883	1898	1929	1957	1920	1902	1884	1848	1829	1811	1802	1753	1723	1693	1652	1638	1615	1577	1505	1482	1473	1457	1444	1422	1401	1343	1319	1288	1203	1160	1110	1060	986	946	912	828	800	794	801	851	886	929	1017	1094	1174	1244	1373	1436	1497	1649	1722	1776	1825	1918	1895	1871	1836	1794	1770	1744	1713	1698	1710	1767	1809	1846	1842	1885	1907	1908	1952	1927	1921	1910	1878	1862	1890	2031	2010	1979	1964	2024	2021	2025	2033	2134	2237	2328	2315	2286	2279	2288	2346	2321	2315	2339	2324	2284	2267	2242	2238	2237	2258	2328	2411	2399	2369	2348	2349	2318	2301	2295	2297	2303	2311	2312	2292	2282	2268	2258	2240	2235	2224	2208	2203	2197
-9999	-9999	-9999	-9999	-9999	-9999	-9999	-9999	-9999	-9999	-9999	-9999	-9999	-9999	-9999	-9999	-9999	-9999	-9999	-9999	-9999	-9999	-9999	-9999	-9999	-9999	-9999	-9999	-9999	-9999	-9999	-9999	-9999	-9999	-9999	-9999	-9999	-9999	-9999	-9999	-9999	-9999	-9999	847	800	756	672	638	608	592	575	580	608	624	681	730	779	891	942	977	1019	1137	1193	1261	1405	1469	1503	1512	1495	1521	1542	1534	1539	1510	1486	1493	1522	1567	1676	1737	1790	1841	1920	1917	1899	1836	1849	1823	1807	1708	1679	1642	1561	1507	1452	1404	1306	1265	1193	1092	1053	1016	980	946	947	972	1053	1085	1135	1190	1275	1329	1400	1524	1576	1640	1706	1818	1804	1751	1653	1606	1569	1546	1536	1553	1580	1608	1682	1714	1764	1865	1923	1976	2009	2086	2122	2132	2129	2135	2135	2144	2172	2191	2215	2269	2314	2373	2446	2353	2340	2335	2325	2333	2332	2331	2371	2361	2361	2436	2415	2416	2413	2435	2452	2464	2426	2382	2358	2334	2257	2198	2159	2073	2018	1975	1934	1853	1812	1783	1747	1735	1740	1738	1657	1653	1661	1606	1555	1577	1578	1500	1480	1402	1360	1336	1313	1296	1298	1295	1289	1277	1255	1249	1236	1221	1217	1204	1190	1177	1180	1173	1157	1152	1121	1115	1114	1110	1106	1093	1094	1091	1084	1092	1100	1098	1101	1098	1107	1124	1147	1154	1155	1160	1157	1150	1101	1085	1074	1073	1062	1057	1050	1039	1014	997	988	981	987	1000	997	1006	1006	1009	1017	1028	1042	1100	1125	1152	1175	1236	1271	1300	1327	1384	1423	1497	1583	1571	1544	1543	1644	1717	1802	1894	2025	2043	2038	2092	2108	2132	2163	2286	2343	2296	2176	2146	2101	2054	1968	1934	1897	1822	1772	1721	1669	1548	1481	1448	1388	1372	1357	1351	1354	1366	1367	1365	1357	1345	1334	1303	1287	1273	1248	1237	1227	1221	1206	1199	1195	1195	1196	1208	1226	1287	1318	1354	1446	1498	1557	1604	1700	1747	1786	1801	1813	1811	1808	1773	1752	1732	1671	1663	1629	1595	1534	1511	1494	1462	1428	1394	1359	1318	1294	1274	1242	1200	1164	1119	1035	994	958	919	831	797	766	707	682	661	639	585	568	568	568	568	568	568	568	568	568	585	597	620	651	704	726	758	829	873	920	968	1054	1094	1132	1199	1244	1275	1291	1393	1445	1491	1576	1619	1669	1711	1806	1840	1854	1908	1935	1945	1940	1935	1966	1979	1923	1904	1892	1875	1838	1822	1802	1763	1740	1719	1695	1645	1631	1619	1537	1508	1492	1481	1464	1449	1428	1408	1359	1330	1298	1213	1163	1110	1061	1004	969	926	842	815	800	796	853	880	926	1037	1119	1190	1250	1381	1444	1507	1635	1696	1764	1830	1934	1964	1983	1943	1927	1898	1803	1766	1757	1752	1791	1835	1889	1875	1905	1930	1936	1997	1968	1958	1941	1906	1918	1948	2096	2143	2097	2064	2042	2042	2040	2091	2159	2259	2357	2392	2353	2322	2357	2380	2357	2345	2390	2360	2329	2309	2299	2293	2290	2298	2366	2414	2391	2361	2343	2349	2313	2304	2305	2311	2314	2305	2304	2294	2283	2278	2273	2263	2259	2254	2235	2220	2213
