ncols 541
nrows 33
xllcorner -1620000
yllcorner 495400
cellsize 100
NODATA_value -9999
-9999 -9999 -9999 -9999 -9999 -9999 -9999 -9999 -9999 -9999 -9999 -9999 -9999 -9999 -9999 -9999 -9999 -9999 -9999 -9999 -9999 -9999 -9999 -9999 -9999 -9999 -9999 -9999 -9999 -9999 -9999 -9999 -9999 -9999 -9999 -9999 -9999 -9999 -9999 -9999 -9999 -9999 -9999 -9999 -9999 -9999 -9999 -9999 -9999 -9999 -9999 -9999 -9999 -9999 -9999 -9999 -9999 -9999 -9999 -9999 -9999 -9999 -9999 -9999 -9999 -9999 -9999 -9999 -9999 -9999 -9999 -9999 -9999 -9999 -9999 -9999 -9999 -9999 -9999 -9999 -9999 -9999 -9999 -9999 -9999 -9999 -9999 -9999 -9999 -9999 -9999 -9999 -9999 -9999 -9999 -9999 -9999 -9999 -9999 -9999 -9999 -9999 -9999 -9999 -9999 -9999 -9999 -9999 -9999 -9999 -9999 -9999 -9999 -9999 -9999 -9999 -9999 -9999 -9999 -9999 -9999 -9999 -9999 -9999 -9999 -9999 -9999 -9999 -9999 -9999 -9999 -9999 -9999 -9999 -9999 -9999 -9999 -9999 -9999 -9999 -9999 -9999 -9999 -9999 -9999 -9999 -9999 -9999 -9999 -9999 -9999 -9999 -9999 -9999 -9999 -9999 -9999 -9999 -9999 -9999 -9999 -9999 -9999 -9999 -9999 -9999 1565 1565 1579 1621 1642 1692 1711 1729 1772 1800 1842 1873 1909 1913 1921 1928 1924 1914 1901 1849 1794 1745 1683 1625 1570 1522 1412 1359 1300 1222 1203 1192 1213 1320 1359 1394 1495 1543 1583 1633 1677 1689 1701 1756 1774 1788 1796 1824 1850 1876 1927 1943 1960 1976 2018 2035 2064 2141 2162 2181 2195 2250 2264 2262 2197 2252 2318 2301 2245 2171 2153 2039 1957 1905 1846 1735 1708 1651 1604 1606 1609 1615 1645 1671 1700 1763 1787 1826 1874 1986 2029 2060 2125 2168 2221 2302 2336 2269 2236 2184 2148 2128 2113 2093 2075 2017 1958 1913 1901 1897 1895 1879 1877 1934 1943 1944 1944 1941 1898 1883 1883 1891 1888 1873 1750 1684 1694 1704 1729 1743 1753 1754 1754 1748 1726 1746 1771 1786 1809 1824 1847 1921 1948 1976 2008 2069 2051 2077 2148 2176 2204 2230 2295 2325 2353 2417 2442 2415 2323 2279 2253 2243 2211 2151 2091 2048 2090 2105 2101 2100 2105 2105 2104 2045 1907 1777 1635 1599 1567 1544 1516 1516 1532 1598 1649 1710 1775 1893 1955 2010 2091 2107 2094 2042 1889 1893 1888 1926 1911 1908 1895 1954 1956 1881 1734 1689 1662 1688 1651 1573 1491 1344 1268 1179 1113 1024 996 971 966 966 970 990 1064 1104 1165 1265 1315 1339 1364 1440 1493 1542 1664 1726 1778 1836 -9999 -9999 -9999 -9999 -9999 -9999 -9999 -9999 -9999 -9999 -9999 -9999 -9999 -9999 -9999 -9999 -9999 -9999 -9999 -9999 -9999 -9999 -9999 -9999 -9999 -9999 -9999 -9999 -9999 -9999 -9999 -9999 -9999 -9999 -9999 -9999 -9999 -9999 -9999 -9999 -9999 -9999 -9999 -9999 -9999 -9999 -9999 -9999 -9999 -9999 -9999 -9999 -9999 -9999 -9999 -9999 -9999 -9999 -9999 -9999 -9999 -9999 -9999 -9999 -9999 -9999 -9999 -9999 -9999 -9999 -9999 -9999 -9999 -9999 -9999 -9999 -9999 -9999 -9999 -9999 -9999 -9999 -9999 -9999 -9999 -9999 -9999 -9999 -9999 -9999 -9999 -9999 -9999 -9999 -9999 -9999 -9999 -9999 -9999 -9999 -9999 -9999 -9999 -9999 -9999 -9999 -9999 -9999 -9999 -9999 -9999 -9999 -9999 -9999 -9999 -9999 -9999 -9999 -9999 -9999 -9999 -9999 -9999 -9999 -9999 -9999 -9999 -9999 -9999 -9999 -9999 -9999 -9999 -9999 -9999 -9999 -9999 -9999 -9999
-9999 -9999 -9999 -9999 -9999 -9999 -9999 -9999 -9999 -9999 -9999 -9999 -9999 -9999 -9999 -9999 -9999 -9999 -9999 -9999 -9999 -9999 -9999 -9999 -9999 -9999 -9999 -9999 -9999 -9999 -9999 -9999 -9999 -9999 -9999 -9999 -9999 -9999 -9999 -9999 -9999 -9999 -9999 -9999 -9999 -9999 -9999 -9999 -9999 -9999 -9999 -9999 -9999 -9999 -9999 -9999 -9999 -9999 -9999 -9999 -9999 -9999 -9999 -9999 -9999 -9999 -9999 -9999 -9999 -9999 -9999 -9999 -9999 -9999 -9999 -9999 -9999 -9999 -9999 -9999 -9999 -9999 -9999 -9999 -9999 -9999 -9999 -9999 -9999 -9999 -9999 -9999 -9999 -9999 -9999 -9999 -9999 -9999 -9999 -9999 -9999 -9999 -9999 -9999 -9999 -9999 -9999 -9999 -9999 -9999 -9999 -9999 -9999 -9999 -9999 -9999 -9999 -9999 -9999 -9999 -9999 -9999 -9999 -9999 -9999 -9999 -9999 -9999 -9999 -9999 -9999 -9999 -9999 -9999 -9999 -9999 -9999 -9999 -9999 -9999 -9999 -9999 -9999 -9999 -9999 -9999 -9999 -9999 -9999 -9999 -9999 -9999 -9999 -9999 -9999 -9999 -9999 -9999 -9999 -9999 -9999 -9999 -9999 -9999 -9999 1544 1534 1537 1551 1564 1611 1640 1659 1686 1725 1776 1806 1859 1867 1873 1876 1888 1885 1881 1838 1807 1772 1729 1668 1613 1563 1463 1402 1362 1310 1218 1196 1185 1248 1305 1341 1370 1465 1510 1551 1636 1649 1659 1671 1693 1706 1723 1744 1757 1773 1833 1873 1904 1932 1965 1983 2004 2032 2091 2121 2153 2195 2228 2274 2321 2335 2278 2226 2138 2108 2071 2078 1988 1918 1872 1756 1700 1657 1617 1554 1561 1562 1604 1639 1673 1706 1776 1810 1845 1982 2060 2046 2070 2143 2188 2253 2387 2365 2294 2272 2223 2199 2185 2144 2128 2121 2098 1996 1964 1956 1960 1974 1929 1940 1979 1990 2001 2000 2007 2003 1979 1959 1958 1962 1957 1899 1818 1790 1800 1795 1787 1784 1764 1760 1752 1733 1762 1789 1826 1852 1864 1894 1959 1991 2028 2075 2108 2137 2170 2227 2250 2268 2316 2321 2351 2378 2438 2472 2445 2287 2265 2238 2229 2198 2155 2089 2009 2025 2034 2019 2025 2032 2030 2084 2064 1937 1803 1630 1585 1551 1507 1501 1504 1524 1591 1636 1685 1795 1848 1897 1908 1912 1899 1922 1889 1836 1843 1844 1865 1857 1858 1874 1893 1916 1879 1719 1668 1631 1565 1541 1495 1413 1244 1169 1146 1041 998 977 961 956 959 965 1050 1091 1128 1178 1280 1320 1353 1433 1470 1506 1549 1651 1707 1776 1840 1766 1708 1649 -9999 -9999 -9999 -9999 -9999 -9999 -9999 -9999 -9999 -9999 -9999 -9999 -9999 -9999 -9999 -9999 -9999 -9999 -9999 -9999 -9999 -9999 -9999 -9999 -9999 -9999 -9999 -9999 -9999 -9999 -9999 -9999 -9999 -9999 -9999 -9999 -9999 -9999 -9999 -9999 -9999 -9999 -9999 -9999 -9999 -9999 -9999 -9999 -9999 -9999 -9999 -9999 -9999 -9999 -9999 -9999 -9999 -9999 -9999 -9999 -9999 -9999 -9999 -9999 -9999 -9999 -9999 -9999 -9999 -9999 -9999 -9999 -9999 -9999 -9999 -9999 -9999 -9999 -9999 -9999 -9999 -9999 -9999 -9999 -9999 -9999 -9999 -9999 -9999 -9999 -9999 -9999 -9999 -9999 -9999 -9999 -9999 -9999 -9999 -9999 -9999 -9999 -9999 -9999 -9999 -9999 -9999 -9999 -9999 -9999 -9999 -9999 -9999 -9999 1507 1541 1534 -9999 1581 1620 1651 1679 1740 1759 1775 1798 1847 1874 1902 1938 1914 1905 1926 1941 1945 -9999
-9999 -9999 -9999 -9999 -9999 -9999 -9999 -9999 -9999 -9999 -9999 -9999 -9999 -9999 -9999 -9999 -9999 -9999 -9999 -9999 -9999 -9999 -9999 -9999 -9999 -9999 -9999 -9999 -9999 -9999 -9999 -9999 -9999 -9999 -9999 -9999 -9999 -9999 -9999 -9999 -9999 -9999 -9999 -9999 -9999 -9999 -9999 -9999 -9999 -9999 -9999 -9999 -9999 -9999 -9999 -9999 -9999 -9999 -9999 -9999 -9999 -9999 -9999 -9999 -9999 -9999 -9999 -9999 -9999 -9999 -9999 -9999 -9999 -9999 -9999 -9999 -9999 -9999 -9999 -9999 -9999 -9999 -9999 -9999 -9999 -9999 -9999 -9999 -9999 -9999 -9999 -9999 -9999 -9999 -9999 -9999 -9999 -9999 -9999 -9999 -9999 -9999 -9999 -9999 -9999 -9999 -9999 -9999 -9999 -9999 -9999 -9999 -9999 -9999 -9999 -9999 -9999 -9999 -9999 -9999 -9999 -9999 -9999 -9999 -9999 -9999 -9999 -9999 -9999 -9999 -9999 -9999 -9999 -9999 -9999 -9999 -9999 -9999 -9999 -9999 -9999 -9999 -9999 -9999 -9999 -9999 -9999 -9999 -9999 -9999 -9999 -9999 -9999 -9999 -9999 -9999 -9999 -9999 -9999 -9999 -9999 -9999 -9999 -9999 1532 1522 1515 1518 1525 1532 1561 1603 1631 1652 1691 1715 1733 1773 1790 1807 1814 1850 1844 1842 1797 1757 1731 1710 1655 1617 1566 1511 1494 1433 1334 1214 1186 1177 1235 1287 1311 1350 1432 1480 1527 1613 1623 1633 1640 1660 1672 1688 1712 1727 1737 1754 1788 1808 1840 1901 1919 1969 2000 2040 2078 2111 2169 2206 2251 2298 2280 2216 2165 2065 2046 2017 1985 1919 1873 1809 1703 1646 1619 1572 1526 1518 1534 1608 1649 1693 1727 1804 1839 1881 2052 2124 2175 2199 2307 2353 2399 2451 2379 2336 2307 2272 2253 2233 2204 2187 2156 2101 2030 2013 2003 2004 2012 2023 2036 2058 2064 2072 2091 2053 2061 2052 2023 2013 2008 2015 2006 1972 1882 1860 1847 1831 1823 1817 1814 1814 1808 1823 1835 1843 1893 1925 1954 2010 2038 2074 2119 2141 2167 2197 2251 2273 2294 2342 2394 2416 2438 2493 2497 2437 2278 2251 2229 2217 2184 2140 2090 1983 1977 1986 1977 1989 1989 1999 2029 2049 2003 1880 1692 1614 1536 1499 1489 1500 1520 1590 1627 1667 1763 1815 1853 1842 1813 1806 1830 1737 1754 1745 1747 1753 1754 1801 1819 1840 1869 1863 1707 1656 1608 1510 1475 1434 1353 1184 1124 1072 980 954 944 944 948 959 983 1074 1123 1171 1220 1282 1318 1360 1454 1493 1523 1563 1663 1731 1796 1899 1836 1775 1747 1650 1536 -9999 -9999 -9999 -9999 -9999 -9999 -9999 -9999 -9999 -9999 -9999 -9999 -9999 -9999 -9999 -9999 -9999 -9999 -9999 -9999 -9999 -9999 -9999 -9999 -9999 -9999 -9999 -9999 -9999 -9999 -9999 -9999 -9999 -9999 -9999 -9999 -9999 -9999 -9999 -9999 -9999 -9999 -9999 -9999 -9999 -9999 -9999 -9999 -9999 -9999 -9999 -9999 -9999 -9999 -9999 -9999 -9999 -9999 -9999 -9999 -9999 -9999 -9999 -9999 -9999 -9999 -9999 -9999 -9999 -9999 -9999 -9999 -9999 -9999 -9999 -9999 -9999 -9999 -9999 -9999 -9999 -9999 -9999 -9999 -9999 -9999 -9999 -9999 -9999 -9999 -9999 -9999 -9999 -9999 -9999 -9999 -9999 -9999 -9999 -9999 -9999 -9999 -9999 -9999 -9999 -9999 1393 1381 1379 1368 1415 1448 1470 1493 1482 1498 1557 1662 1687 1706 1747 1749 1760 1782 1827 1852 1880 1896 1879 1858 1879 1908 1913 1918
-9999 -9999 -9999 -9999 -9999 -9999 -9999 -9999 -9999 -9999 -9999 -9999 -9999 -9999 -9999 -9999 -9999 -9999 -9999 -9999 -9999 -9999 -9999 -9999 -9999 -9999 -9999 -9999 -9999 -9999 -9999 -9999 -9999 -9999 -9999 -9999 -9999 -9999 -9999 -9999 -9999 -9999 -9999 -9999 -9999 -9999 -9999 -9999 -9999 -9999 -9999 -9999 -9999 -9999 -9999 -9999 -9999 -9999 -9999 -9999 -9999 -9999 -9999 -9999 -9999 -9999 -9999 -9999 -9999 -9999 -9999 -9999 -9999 -9999 -9999 -9999 -9999 -9999 -9999 -9999 -9999 -9999 -9999 -9999 -9999 -9999 -9999 -9999 -9999 -9999 -9999 -9999 -9999 -9999 -9999 -9999 -9999 -9999 -9999 -9999 -9999 -9999 -9999 -9999 -9999 -9999 -9999 -9999 -9999 -9999 -9999 -9999 -9999 -9999 -9999 -9999 -9999 -9999 -9999 -9999 -9999 -9999 -9999 -9999 -9999 -9999 -9999 -9999 -9999 -9999 -9999 -9999 -9999 -9999 -9999 -9999 -9999 -9999 -9999 -9999 -9999 -9999 -9999 -9999 -9999 -9999 -9999 -9999 -9999 -9999 -9999 -9999 -9999 -9999 -9999 -9999 -9999 -9999 -9999 -9999 -9999 -9999 -9999 1453 1454 1463 1492 1494 1497 1502 1530 1563 1592 1607 1659 1681 1698 1728 1749 1768 1780 1798 1809 1817 1776 1735 1693 1680 1637 1619 1618 1618 1549 1458 1356 1219 1185 1172 1231 1282 1310 1329 1400 1468 1529 1574 1579 1608 1611 1630 1644 1659 1684 1697 1703 1713 1741 1763 1793 1853 1875 1904 1922 1974 2000 2022 2108 2180 2229 2264 2215 2134 2105 2004 1985 1957 1932 1857 1830 1780 1684 1612 1552 1494 1473 1492 1553 1633 1663 1724 1771 1868 1907 1932 2091 2138 2170 2218 2307 2343 2403 2457 2388 2360 2342 2331 2325 2322 2256 2241 2187 2129 2071 2059 2047 2042 2050 2058 2070 2096 2104 2114 2131 2140 2149 2147 2136 2150 2152 2060 2048 2031 1984 1912 1906 1893 1882 1884 1880 1880 1868 1879 1894 1948 1981 2019 2048 2100 2133 2115 2162 2178 2194 2220 2273 2296 2317 2359 2391 2444 2469 2490 2445 2404 2273 2238 2219 2200 2178 2139 2082 1973 1944 1943 1934 1956 1954 1966 2007 2023 2002 1913 1712 1634 1545 1477 1486 1505 1531 1589 1613 1648 1734 1776 1795 1772 1746 1731 1775 1679 1702 1693 1681 1700 1707 1709 1718 1743 1763 1780 1725 1650 1598 1464 1407 1369 1289 1144 1090 1043 962 941 940 941 951 980 1017 1097 1140 1184 1230 1320 1325 1360 1464 1510 1545 1586 1672 1740 1818 1927 1893 1847 1804 1704 1654 1617 -9999 -9999 -9999 -9999 -9999 -9999 -9999 -9999 -9999 -9999 -9999 -9999 -9999 -9999 -9999 -9999 -9999 -9999 -9999 -9999 -9999 -9999 -9999 -9999 -9999 -9999 -9999 -9999 -9999 -9999 -9999 -9999 -9999 -9999 -9999 -9999 -9999 -9999 -9999 -9999 -9999 -9999 -9999 -9999 -9999 -9999 -9999 -9999 -9999 -9999 -9999 -9999 -9999 -9999 -9999 -9999 -9999 -9999 -9999 -9999 -9999 -9999 -9999 -9999 -9999 -9999 -9999 -9999 -9999 -9999 -9999 -9999 -9999 -9999 -9999 -9999 -9999 -9999 -9999 -9999 -9999 -9999 -9999 -9999 -9999 -9999 -9999 -9999 -9999 -9999 -9999 -9999 -9999 -9999 -9999 -9999 -9999 -9999 -9999 -9999 1567 1559 1547 1539 1514 1407 1361 1351 1347 1386 1412 1434 1450 1443 1489 1540 1640 1671 1694 1722 1736 1752 1762 1818 1845 1843 1810 1829 1813 1841 1866 1882 1890
-9999 -9999 -9999 -9999 -9999 -9999 -9999 -9999 -9999 -9999 -9999 -9999 -9999 -9999 -9999 -9999 -9999 -9999 -9999 -9999 -9999 -9999 -9999 -9999 -9999 -9999 -9999 -9999 -9999 -9999 -9999 -9999 -9999 -9999 -9999 -9999 -9999 -9999 -9999 -9999 -9999 -9999 -9999 -9999 -9999 -9999 -9999 -9999 -9999 -9999 -9999 -9999 -9999 -9999 -9999 -9999 -9999 -9999 -9999 -9999 -9999 -9999 -9999 -9999 -9999 -9999 -9999 -9999 -9999 -9999 -9999 -9999 -9999 -9999 -9999 -9999 -9999 -9999 -9999 -9999 -9999 -9999 -9999 -9999 -9999 -9999 -9999 -9999 -9999 -9999 -9999 -9999 -9999 -9999 -9999 -9999 -9999 -9999 -9999 -9999 -9999 -9999 -9999 -9999 -9999 -9999 -9999 -9999 -9999 -9999 -9999 -9999 -9999 -9999 -9999 -9999 -9999 -9999 -9999 -9999 -9999 -9999 -9999 -9999 -9999 -9999 -9999 -9999 -9999 -9999 -9999 -9999 -9999 -9999 -9999 -9999 -9999 -9999 -9999 -9999 -9999 -9999 -9999 -9999 -9999 -9999 -9999 -9999 -9999 -9999 -9999 -9999 -9999 -9999 -9999 -9999 -9999 -9999 -9999 -9999 -9999 -9999 1419 1420 1412 1418 1419 1434 1435 1452 1472 1490 1544 1559 1621 1645 1664 1689 1712 1731 1742 1777 1789 1790 1742 1714 1682 1646 1619 1622 1612 1587 1582 1462 1359 1231 1190 1171 1223 1275 1298 1312 1415 1486 1513 1560 1557 1560 1560 1573 1577 1587 1606 1661 1668 1678 1704 1727 1750 1799 1823 1856 1883 1939 1956 1974 2083 2137 2153 2160 2033 1960 1938 1942 1919 1901 1866 1785 1774 1730 1640 1564 1500 1453 1445 1500 1557 1656 1731 1821 1884 1943 1939 1974 2119 2168 2186 2225 2300 2337 2386 2461 2399 2367 2345 2335 2334 2338 2341 2335 2281 2210 2160 2146 2092 2077 2072 2080 2095 2142 2150 2154 2168 2178 2189 2198 2209 2208 2201 2175 2155 2111 2087 1997 2010 1967 1956 1939 1925 1912 1901 1916 1936 1992 2025 2056 2090 2141 2165 2214 2219 2227 2246 2266 2314 2319 2341 2385 2406 2444 2498 2446 2401 2372 2272 2237 2210 2198 2177 2139 2076 1956 1902 1857 1846 1897 1921 1935 1982 1998 1984 1916 1703 1633 1558 1474 1488 1506 1530 1582 1600 1623 1667 1679 1686 1640 1691 1670 1722 1634 1651 1633 1631 1645 1644 1640 1675 1701 1714 1736 1734 1664 1592 1452 1370 1285 1187 1106 1058 1018 943 938 940 936 958 997 1040 1138 1190 1221 1263 1344 1384 1429 1501 1536 1576 1607 1683 1754 1826 1935 1943 1916 1864 1754 1705 1668 1618 1569 -9999 -9999 -9999 -9999 -9999 -9999 -9999 -9999 -9999 -9999 -9999 -9999 -9999 -9999 -9999 -9999 -9999 -9999 -9999 -9999 -9999 -9999 -9999 -9999 -9999 -9999 -9999 -9999 -9999 -9999 -9999 -9999 -9999 -9999 -9999 -9999 -9999 -9999 -9999 -9999 -9999 -9999 -9999 -9999 -9999 -9999 -9999 -9999 -9999 -9999 -9999 -9999 -9999 -9999 -9999 -9999 -9999 -9999 -9999 -9999 -9999 -9999 -9999 -9999 -9999 -9999 -9999 -9999 -9999 -9999 -9999 -9999 -9999 -9999 -9999 -9999 -9999 -9999 -9999 -9999 -9999 -9999 -9999 -9999 -9999 -9999 -9999 -9999 -9999 -9999 -9999 -9999 -9999 -9999 1671 1624 1583 1577 1580 1578 1579 1563 1526 1420 1376 1333 1289 1311 1332 1357 1406 1433 1481 1561 1596 1639 1673 1696 1730 1747 1785 1814 1829 1817 1775 1744 1731 1767 1788 1796 1809
-9999 -9999 -9999 -9999 -9999 -9999 -9999 -9999 -9999 -9999 -9999 -9999 -9999 -9999 -9999 -9999 -9999 -9999 -9999 -9999 -9999 -9999 -9999 -9999 -9999 -9999 -9999 -9999 -9999 -9999 -9999 -9999 -9999 -9999 -9999 -9999 -9999 -9999 -9999 -9999 -9999 -9999 -9999 -9999 -9999 -9999 -9999 -9999 -9999 -9999 -9999 -9999 -9999 -9999 -9999 -9999 -9999 -9999 -9999 -9999 -9999 -9999 -9999 -9999 -9999 -9999 -9999 -9999 -9999 -9999 -9999 -9999 -9999 -9999 -9999 -9999 -9999 -9999 -9999 -9999 -9999 -9999 -9999 -9999 -9999 -9999 -9999 -9999 -9999 -9999 -9999 -9999 -9999 -9999 -9999 -9999 -9999 -9999 -9999 -9999 -9999 -9999 -9999 -9999 -9999 -9999 -9999 -9999 -9999 -9999 -9999 -9999 -9999 -9999 -9999 -9999 -9999 -9999 -9999 -9999 -9999 -9999 -9999 -9999 -9999 -9999 -9999 -9999 -9999 -9999 -9999 -9999 -9999 -9999 -9999 -9999 -9999 -9999 -9999 -9999 -9999 -9999 -9999 -9999 -9999 -9999 -9999 -9999 -9999 -9999 -9999 -9999 -9999 -9999 -9999 -9999 -9999 -9999 -9999 -9999 -9999 1406 1394 1400 1386 1379 1395 1393 1399 1421 1444 1449 1446 1505 1546 1574 1584 1620 1674 1694 1714 1735 1755 1756 1720 1694 1682 1669 1666 1650 1632 1589 1563 1538 1303 1239 1192 1164 1184 1257 1282 1320 1411 1466 1492 1530 1532 1533 1545 1543 1542 1553 1567 1576 1587 1609 1631 1654 1669 1741 1773 1807 1876 1896 1907 1943 2046 2084 2091 2054 1961 1897 1872 1812 1755 1736 1696 1690 1643 1664 1582 1517 1460 1413 1444 1500 1557 1685 1752 1820 1881 1875 1886 1962 2115 2186 2235 2294 2333 2373 2402 2477 2415 2377 2348 2340 2336 2341 2356 2353 2309 2218 2202 2193 2184 2166 2163 2169 2207 2220 2191 2200 2207 2216 2229 2253 2258 2257 2249 2219 2201 2160 2102 2053 2038 2051 2055 2044 2027 1953 1939 1934 1954 2010 2052 2086 2158 2190 2217 2256 2272 2270 2282 2306 2332 2365 2394 2453 2488 2521 2527 2430 2384 2352 2282 2235 2206 2193 2174 2134 2076 1935 1872 1835 1824 1855 1865 1870 1927 1943 1926 1782 1693 1618 1550 1470 1487 1504 1538 1555 1569 1578 1613 1625 1631 1563 1569 1566 1605 1533 1549 1548 1590 1593 1580 1569 1628 1638 1649 1724 1730 1661 1597 1458 1371 1276 1094 1028 999 965 930 927 927 954 985 1018 1065 1183 1246 1286 1366 1402 1444 1489 1552 1580 1616 1711 1757 1804 1846 1910 1967 1972 1857 1809 1770 1737 1694 1647 1585 1535 1539 -9999 -9999 -9999 -9999 -9999 -9999 -9999 -9999 -9999 -9999 -9999 -9999 -9999 -9999 -9999 -9999 -9999 -9999 -9999 -9999 -9999 -9999 -9999 -9999 -9999 -9999 -9999 -9999 -9999 -9999 -9999 -9999 -9999 -9999 -9999 -9999 -9999 -9999 -9999 -9999 -9999 -9999 -9999 -9999 -9999 -9999 -9999 -9999 -9999 -9999 -9999 -9999 -9999 -9999 -9999 -9999 -9999 -9999 -9999 -9999 -9999 -9999 -9999 -9999 -9999 -9999 -9999 -9999 -9999 -9999 -9999 -9999 -9999 -9999 -9999 -9999 -9999 -9999 -9999 -9999 -9999 -9999 -9999 -9999 -9999 -9999 -9999 -9999 1671 1664 1650 1619 1617 1593 1598 1597 1624 1627 1596 1555 1446 1398 1341 1273 1282 1299 1327 1362 1401 1433 1504 1541 1581 1631 1695 1717 1728 1779 1798 1801 1782 1739 1704 1699 1737 1752 1758 1779
-9999 -9999 -9999 -9999 -9999 -9999 -9999 -9999 -9999 -9999 -9999 -9999 -9999 -9999 -9999 -9999 -9999 -9999 -9999 -9999 -9999 -9999 -9999 -9999 -9999 -9999 -9999 -9999 -9999 -9999 -9999 -9999 -9999 -9999 -9999 -9999 -9999 -9999 -9999 -9999 -9999 -9999 -9999 -9999 -9999 -9999 -9999 -9999 -9999 -9999 -9999 -9999 -9999 -9999 -9999 -9999 -9999 -9999 -9999 -9999 -9999 -9999 -9999 -9999 -9999 -9999 -9999 -9999 -9999 -9999 -9999 -9999 -9999 -9999 -9999 -9999 -9999 -9999 -9999 -9999 -9999 -9999 -9999 -9999 -9999 -9999 -9999 -9999 -9999 -9999 -9999 -9999 -9999 -9999 -9999 -9999 -9999 -9999 -9999 -9999 -9999 -9999 -9999 -9999 -9999 -9999 -9999 -9999 -9999 -9999 -9999 -9999 -9999 -9999 -9999 -9999 -9999 -9999 -9999 -9999 -9999 -9999 -9999 -9999 -9999 -9999 -9999 -9999 -9999 -9999 -9999 -9999 -9999 -9999 -9999 -9999 -9999 -9999 -9999 -9999 -9999 -9999 -9999 -9999 -9999 -9999 -9999 -9999 -9999 -9999 -9999 -9999 -9999 -9999 -9999 -9999 -9999 -9999 -9999 -9999 1345 1340 1338 1333 1361 1353 1362 1359 1364 1381 1416 1405 1416 1468 1511 1530 1545 1585 1604 1606 1643 1667 1684 1679 1714 1707 1706 1688 1674 1657 1636 1574 1549 1528 1409 1256 1194 1160 1167 1207 1235 1296 1356 1418 1449 1502 1506 1508 1521 1516 1517 1525 1535 1536 1549 1575 1592 1605 1625 1666 1703 1743 1779 1813 1869 1928 2007 2029 2037 1987 1901 1844 1811 1736 1690 1650 1629 1633 1601 1539 1478 1433 1394 1384 1434 1500 1560 1698 1748 1781 1791 1804 1879 1954 2088 2157 2203 2256 2294 2323 2349 2388 2421 2436 2396 2386 2350 2349 2363 2368 2353 2291 2251 2237 2233 2208 2208 2218 2249 2262 2272 2272 2289 2298 2309 2338 2306 2301 2288 2267 2246 2215 2146 2107 2075 2071 2077 2083 2074 2020 1981 1973 1989 2052 2091 2130 2222 2229 2260 2290 2333 2324 2325 2333 2354 2384 2413 2465 2500 2553 2535 2469 2414 2358 2290 2245 2219 2188 2162 2114 2068 1919 1854 1823 1777 1802 1829 1834 1887 1898 1867 1759 1661 1598 1532 1452 1466 1483 1525 1526 1529 1527 1557 1560 1574 1508 1517 1497 1505 1497 1504 1508 1505 1506 1486 1490 1528 1525 1589 1681 1711 1672 1588 1428 1335 1236 1065 1013 968 949 929 925 931 988 1023 1063 1123 1256 1305 1336 1420 1449 1487 1526 1595 1623 1646 1723 1771 1835 1870 1922 1953 1997 1999 1943 1911 1886 1819 1716 1648 1591 1589 1613 1654 -9999 -9999 -9999 -9999 -9999 -9999 -9999 -9999 -9999 -9999 -9999 -9999 -9999 -9999 -9999 -9999 -9999 -9999 -9999 -9999 -9999 -9999 -9999 -9999 -9999 -9999 -9999 -9999 -9999 -9999 -9999 -9999 -9999 -9999 -9999 -9999 -9999 -9999 -9999 -9999 -9999 -9999 -9999 -9999 -9999 -9999 -9999 -9999 -9999 -9999 -9999 -9999 -9999 -9999 -9999 -9999 -9999 -9999 -9999 -9999 -9999 -9999 -9999 -9999 -9999 -9999 -9999 -9999 -9999 -9999 -9999 -9999 -9999 -9999 -9999 -9999 -9999 -9999 -9999 -9999 -9999 -9999 -9999 1863 1757 1695 1662 1652 1644 1637 1635 1645 1650 1661 1690 1701 1685 1584 1462 1404 1340 1264 1264 1270 1295 1368 1415 1449 1508 1545 1578 1606 1641 1650 1670 1722 1735 1766 1748 1699 1665 1679 1701 1713 1737 1767
-9999 -9999 -9999 -9999 -9999 -9999 -9999 -9999 -9999 -9999 -9999 -9999 -9999 -9999 -9999 -9999 -9999 -9999 -9999 -9999 -9999 -9999 -9999 -9999 -9999 -9999 -9999 -9999 -9999 -9999 -9999 -9999 -9999 -9999 -9999 -9999 -9999 -9999 -9999 -9999 -9999 -9999 -9999 -9999 -9999 -9999 -9999 -9999 -9999 -9999 -9999 -9999 -9999 -9999 -9999 -9999 -9999 -9999 -9999 -9999 -9999 -9999 -9999 -9999 -9999 -9999 -9999 -9999 -9999 -9999 -9999 -9999 -9999 -9999 -9999 -9999 -9999 -9999 -9999 -9999 -9999 -9999 -9999 -9999 -9999 -9999 -9999 -9999 -9999 -9999 -9999 -9999 -9999 -9999 -9999 -9999 -9999 -9999 -9999 -9999 -9999 -9999 -9999 -9999 -9999 -9999 -9999 -9999 -9999 -9999 -9999 -9999 -9999 -9999 -9999 -9999 -9999 -9999 -9999 -9999 -9999 -9999 -9999 -9999 -9999 -9999 -9999 -9999 -9999 -9999 -9999 -9999 -9999 -9999 -9999 -9999 -9999 -9999 -9999 -9999 -9999 -9999 -9999 -9999 -9999 -9999 -9999 -9999 -9999 -9999 -9999 -9999 -9999 -9999 -9999 -9999 -9999 -9999 -9999 1334 1321 1317 1318 1308 1310 1307 1291 1288 1298 1315 1379 1365 1387 1430 1467 1481 1507 1535 1557 1575 1615 1634 1642 1645 1653 1653 1652 1622 1616 1595 1607 1545 1529 1508 1466 1361 1226 1177 1154 1186 1217 1278 1340 1397 1419 1451 1459 1464 1455 1463 1468 1498 1511 1516 1523 1546 1561 1566 1583 1634 1660 1700 1746 1792 1834 1858 1925 1926 1918 1848 1822 1799 1749 1661 1630 1593 1579 1579 1540 1484 1421 1398 1360 1376 1422 1460 1500 1609 1621 1629 1707 1785 1859 1956 2069 2117 2149 2186 2230 2257 2288 2333 2375 2385 2388 2405 2396 2380 2381 2382 2387 2408 2333 2284 2282 2256 2247 2258 2282 2302 2311 2315 2326 2337 2347 2377 2384 2384 2375 2345 2328 2303 2189 2151 2118 2104 2087 2097 2107 2090 2058 2028 2050 2096 2125 2157 2281 2330 2357 2373 2413 2428 2425 2399 2417 2435 2451 2491 2511 2532 2477 2470 2434 2403 2296 2265 2243 2164 2118 2072 2018 1909 1846 1815 1754 1756 1777 1803 1853 1860 1825 1719 1612 1547 1503 1425 1449 1464 1480 1464 1437 1431 1450 1448 1517 1465 1472 1447 1435 1444 1452 1456 1456 1455 1441 1455 1473 1470 1488 1558 1602 1642 1572 1372 1281 1180 1028 986 952 938 922 921 939 1017 1053 1105 1151 1264 1309 1358 1454 1511 1563 1602 1667 1653 1677 1743 1782 1835 1875 1942 1969 2012 2062 2047 2010 1967 1862 1791 1707 1690 1695 1709 1731 1748 -9999 -9999 -9999 -9999 -9999 -9999 -9999 -9999 -9999 -9999 -9999 -9999 -9999 -9999 -9999 -9999 -9999 -9999 -9999 -9999 -9999 -9999 -9999 -9999 -9999 -9999 -9999 -9999 -9999 -9999 -9999 -9999 -9999 -9999 -9999 -9999 -9999 -9999 -9999 -9999 -9999 -9999 -9999 -9999 -9999 -9999 -9999 -9999 -9999 -9999 -9999 -9999 -9999 -9999 -9999 -9999 -9999 -9999 -9999 -9999 -9999 -9999 -9999 -9999 -9999 -9999 -9999 -9999 -9999 -9999 -9999 -9999 -9999 -9999 -9999 -9999 -9999 -9999 2086 -9999 2005 1942 1882 1766 1709 1668 1671 1678 1665 1652 1671 1686 1700 1734 1728 1685 1624 1500 1443 1388 1276 1235 1250 1275 1359 1399 1431 1493 1536 1564 1603 1605 1624 1646 1697 1701 1694 1649 1618 1595 1608 1678 1701 1738 1787
-9999 -9999 -9999 -9999 -9999 -9999 -9999 -9999 -9999 -9999 -9999 -9999 -9999 -9999 -9999 -9999 -9999 -9999 -9999 -9999 -9999 -9999 -9999 -9999 -9999 -9999 -9999 -9999 -9999 -9999 -9999 -9999 -9999 -9999 -9999 -9999 -9999 -9999 -9999 -9999 -9999 -9999 -9999 -9999 -9999 -9999 -9999 -9999 -9999 -9999 -9999 -9999 -9999 -9999 -9999 -9999 -9999 -9999 -9999 -9999 -9999 -9999 -9999 -9999 -9999 -9999 -9999 -9999 -9999 -9999 -9999 -9999 -9999 -9999 -9999 -9999 -9999 -9999 -9999 -9999 -9999 -9999 -9999 -9999 -9999 -9999 -9999 -9999 -9999 -9999 -9999 -9999 -9999 -9999 -9999 -9999 -9999 -9999 -9999 -9999 -9999 -9999 -9999 -9999 -9999 -9999 -9999 -9999 -9999 -9999 -9999 -9999 -9999 -9999 -9999 -9999 -9999 -9999 -9999 -9999 -9999 -9999 -9999 -9999 -9999 -9999 -9999 -9999 -9999 -9999 -9999 -9999 -9999 -9999 -9999 -9999 -9999 -9999 -9999 -9999 -9999 -9999 -9999 -9999 -9999 -9999 -9999 -9999 -9999 -9999 -9999 -9999 -9999 -9999 -9999 -9999 -9999 -9999 -9999 1315 1300 1297 1290 1285 1282 1282 1262 1265 1275 1306 1299 1326 1340 1373 1378 1397 1489 1499 1528 1554 1578 1599 1607 1615 1616 1614 1611 1586 1573 1561 1505 1484 1476 1466 1439 1425 1298 1153 1140 1158 1181 1254 1307 1352 1412 1424 1435 1435 1431 1436 1439 1449 1457 1459 1468 1502 1510 1536 1571 1602 1631 1660 1730 1765 1795 1854 1874 1878 1873 1791 1759 1710 1604 1556 1531 1512 1467 1515 1472 1398 1380 1372 1325 1362 1384 1412 1520 1547 1548 1569 1699 1765 1832 1926 1955 1979 2015 2054 2154 2189 2242 2283 2299 2307 2325 2343 2364 2380 2377 2378 2390 2425 2442 2441 2401 2388 2357 2357 2314 2328 2351 2367 2368 2374 2383 2418 2428 2425 2401 2378 2358 2324 2235 2188 2170 2147 2145 2138 2130 2146 2141 2130 2131 2140 2159 2192 2281 2323 2369 2446 2449 2464 2474 2476 2504 2530 2563 2538 2498 2476 2426 2410 2385 2339 2311 2289 2272 2187 2120 2058 1968 1918 1853 1804 1731 1708 1721 1788 1784 1822 1764 1654 1576 1519 1442 1408 1420 1435 1445 1429 1408 1396 1401 1399 1393 1363 1367 1362 1345 1340 1386 1395 1405 1405 1398 1417 1408 1412 1442 1507 1559 1602 1446 1369 1262 1151 1004 962 931 918 920 921 951 1045 1105 1165 1260 1310 1349 1397 1483 1524 1572 1667 1712 1728 1738 1824 1875 1907 1961 1962 1983 2032 2108 2118 2099 1958 1881 1794 1747 1735 1751 1782 1799 1801 1785 1768 1765 1766 -9999 -9999 -9999 -9999 -9999 -9999 -9999 -9999 -9999 -9999 -9999 -9999 -9999 -9999 -9999 -9999 -9999 -9999 -9999 -9999 -9999 -9999 -9999 -9999 -9999 -9999 -9999 -9999 -9999 -9999 -9999 -9999 -9999 -9999 -9999 -9999 -9999 -9999 -9999 -9999 -9999 -9999 -9999 -9999 -9999 -9999 -9999 -9999 -9999 -9999 -9999 -9999 -9999 -9999 -9999 -9999 -9999 -9999 -9999 -9999 -9999 -9999 -9999 -9999 -9999 -9999 -9999 -9999 -9999 -9999 -9999 -9999 1988 1995 2002 1962 1949 1937 1870 1820 1772 1746 1748 1707 1694 1686 1704 1721 1737 1765 1724 1660 1556 1499 1447 1397 1286 1233 1225 1286 1332 1371 1409 1477 1520 1550 1568 1584 1600 1626 1670 1670 1661 1610 1581 1569 1609 1654 1690 1720 1768
-9999 -9999 -9999 -9999 -9999 -9999 -9999 -9999 -9999 -9999 -9999 -9999 -9999 -9999 -9999 -9999 -9999 -9999 -9999 -9999 -9999 -9999 -9999 -9999 -9999 -9999 -9999 -9999 -9999 -9999 -9999 -9999 -9999 -9999 -9999 -9999 -9999 -9999 -9999 -9999 -9999 -9999 -9999 -9999 -9999 -9999 -9999 -9999 -9999 -9999 -9999 -9999 -9999 -9999 -9999 -9999 -9999 -9999 -9999 -9999 -9999 -9999 -9999 -9999 -9999 -9999 -9999 -9999 -9999 -9999 -9999 -9999 -9999 -9999 -9999 -9999 -9999 -9999 -9999 -9999 -9999 -9999 -9999 -9999 -9999 -9999 -9999 -9999 -9999 -9999 -9999 -9999 -9999 -9999 -9999 -9999 -9999 -9999 -9999 -9999 -9999 -9999 -9999 -9999 -9999 -9999 -9999 -9999 -9999 -9999 -9999 -9999 -9999 -9999 -9999 -9999 -9999 -9999 -9999 -9999 -9999 -9999 -9999 -9999 -9999 -9999 -9999 -9999 -9999 -9999 -9999 -9999 -9999 -9999 -9999 -9999 -9999 -9999 -9999 -9999 -9999 -9999 -9999 -9999 -9999 -9999 -9999 -9999 -9999 -9999 -9999 -9999 -9999 -9999 -9999 -9999 -9999 -9999 1309 1281 1261 1270 1263 1258 1255 1248 1229 1241 1250 1259 1272 1296 1305 1344 1337 1364 1395 1422 1448 1480 1517 1517 1570 1571 1572 1575 1567 1543 1533 1518 1477 1455 1445 1435 1406 1405 1376 1215 1144 1127 1148 1209 1273 1310 1384 1397 1408 1408 1409 1412 1415 1421 1431 1433 1438 1474 1484 1494 1526 1549 1587 1627 1680 1728 1756 1807 1828 1833 1822 1754 1698 1661 1553 1507 1479 1458 1418 1400 1373 1325 1310 1299 1261 1335 1343 1361 1444 1464 1506 1562 1675 1735 1785 1859 1891 1919 1948 1996 2028 2059 2117 2148 2161 2175 2248 2279 2312 2370 2372 2380 2397 2437 2453 2460 2453 2462 2442 2422 2406 2413 2419 2440 2453 2464 2436 2461 2468 2463 2439 2420 2384 2343 2245 2191 2172 2173 2168 2163 2167 2184 2192 2199 2203 2204 2196 2223 2289 2331 2364 2447 2483 2502 2514 2538 2565 2603 2571 2521 2491 2457 2394 2367 2344 2324 2314 2303 2285 2222 2146 2066 1976 1934 1866 1803 1725 1701 1703 1763 1756 1721 1632 1571 1551 1512 1430 1402 1396 1405 1416 1408 1384 1363 1358 1352 1343 1325 1326 1320 1312 1303 1291 1294 1293 1304 1312 1307 1349 1358 1391 1477 1524 1562 1444 1343 1241 1138 992 948 920 916 919 952 997 1114 1175 1235 1324 1378 1436 1471 1538 1570 1612 1682 1722 1764 1781 1838 1875 1926 1994 2017 2037 2067 2157 2195 2181 1981 1885 1810 1786 1782 1805 1846 1832 1818 1802 1785 1773 1775 1777 1774 -9999 -9999 -9999 -9999 -9999 -9999 -9999 -9999 -9999 -9999 -9999 -9999 -9999 -9999 -9999 -9999 -9999 -9999 -9999 -9999 -9999 -9999 -9999 -9999 -9999 -9999 -9999 -9999 -9999 -9999 -9999 -9999 -9999 -9999 -9999 -9999 -9999 -9999 -9999 -9999 -9999 -9999 -9999 -9999 -9999 -9999 -9999 -9999 -9999 -9999 -9999 -9999 -9999 -9999 -9999 -9999 -9999 -9999 -9999 -9999 -9999 -9999 -9999 -9999 -9999 -9999 -9999 2009 2023 1932 1912 1907 1917 1903 1880 1859 1835 1829 1811 1800 1795 1797 1790 1782 1785 1796 1804 1759 1721 1643 1543 1493 1445 1391 1283 1235 1209 1280 1320 1359 1398 1463 1492 1517 1509 1528 1561 1593 1641 1640 1622 1570 1536 1548 1586 1654 1690 1717 1762
-9999 -9999 -9999 -9999 -9999 -9999 -9999 -9999 -9999 -9999 -9999 -9999 -9999 -9999 -9999 -9999 -9999 -9999 -9999 -9999 -9999 -9999 -9999 -9999 -9999 -9999 -9999 -9999 -9999 -9999 -9999 -9999 -9999 -9999 -9999 -9999 -9999 -9999 -9999 -9999 -9999 -9999 -9999 -9999 -9999 -9999 -9999 -9999 -9999 -9999 -9999 -9999 -9999 -9999 -9999 -9999 -9999 -9999 -9999 -9999 -9999 -9999 -9999 -9999 -9999 -9999 -9999 -9999 -9999 -9999 -9999 -9999 -9999 -9999 -9999 -9999 -9999 -9999 -9999 -9999 -9999 -9999 -9999 -9999 -9999 -9999 -9999 -9999 -9999 -9999 -9999 -9999 -9999 -9999 -9999 -9999 -9999 -9999 -9999 -9999 -9999 -9999 -9999 -9999 -9999 -9999 -9999 -9999 -9999 -9999 -9999 -9999 -9999 -9999 -9999 -9999 -9999 -9999 -9999 -9999 -9999 -9999 -9999 -9999 -9999 -9999 -9999 -9999 -9999 -9999 -9999 -9999 -9999 -9999 -9999 -9999 -9999 -9999 -9999 -9999 -9999 -9999 -9999 -9999 -9999 -9999 -9999 -9999 -9999 -9999 -9999 -9999 -9999 -9999 -9999 -9999 -9999 1272 1291 1257 1239 1215 1201 1194 1179 1174 1173 1206 1225 1228 1257 1265 1291 1304 1305 1345 1355 1393 1424 1454 1475 1476 1475 1478 1481 1485 1486 1470 1493 1473 1433 1419 1409 1397 1374 1365 1353 1253 1160 1122 1136 1195 1215 1245 1328 1340 1341 1343 1384 1388 1394 1400 1409 1409 1416 1442 1452 1468 1517 1542 1582 1611 1649 1668 1688 1721 1734 1729 1703 1704 1638 1594 1506 1456 1430 1404 1371 1357 1330 1295 1281 1265 1239 1256 1265 1287 1355 1371 1388 1486 1656 1692 1735 1796 1814 1845 1882 1934 1967 1997 2061 2088 2115 2141 2175 2202 2218 2292 2335 2382 2407 2455 2471 2481 2494 2506 2516 2499 2460 2456 2460 2485 2493 2503 2521 2545 2544 2540 2500 2466 2407 2361 2268 2209 2179 2179 2182 2184 2185 2192 2199 2205 2210 2213 2222 2243 2303 2330 2355 2417 2460 2517 2561 2637 2663 2685 2563 2512 2486 2455 2383 2357 2340 2320 2309 2285 2236 2179 2180 2163 2038 1956 1900 1824 1720 1692 1685 1735 1723 1677 1608 1561 1545 1516 1450 1429 1405 1382 1383 1385 1378 1341 1326 1326 1311 1291 1292 1288 1280 1274 1259 1258 1254 1261 1266 1240 1266 1282 1302 1393 1430 1463 1427 1322 1235 1125 973 929 915 916 925 962 1009 1129 1183 1246 1389 1440 1507 1582 1670 1704 1671 1723 1748 1784 1821 1880 1902 1927 2011 2029 2066 2087 2168 2170 2167 2062 1947 1876 1861 1902 1922 1900 1885 1858 1836 1815 1808 1807 1804 1785 1778 1779 1781 -9999 -9999 -9999 -9999 -9999 -9999 -9999 -9999 -9999 -9999 -9999 -9999 -9999 -9999 -9999 -9999 -9999 -9999 -9999 -9999 -9999 -9999 -9999 -9999 -9999 -9999 -9999 -9999 -9999 -9999 -9999 -9999 -9999 -9999 -9999 -9999 -9999 -9999 -9999 -9999 -9999 -9999 -9999 -9999 -9999 -9999 -9999 -9999 -9999 -9999 -9999 -9999 -9999 -9999 -9999 -9999 -9999 -9999 -9999 -9999 -9999 1885 1874 1876 1914 1942 1857 1790 1779 1784 1835 1819 1793 1790 1782 1778 1776 1794 1789 1786 1750 1751 1766 1771 1742 1701 1659 1536 1476 1419 1359 1281 1239 1200 1264 1304 1340 1381 1470 1492 1486 1473 1509 1538 1567 1565 1546 1539 1483 1502 1557 1600 1665 1692 1718 1757
-9999 -9999 -9999 -9999 -9999 -9999 -9999 -9999 -9999 -9999 -9999 -9999 -9999 -9999 -9999 -9999 -9999 -9999 -9999 -9999 -9999 -9999 -9999 -9999 -9999 -9999 -9999 -9999 -9999 -9999 -9999 -9999 -9999 -9999 -9999 -9999 -9999 -9999 -9999 -9999 -9999 -9999 -9999 -9999 -9999 -9999 -9999 -9999 -9999 -9999 -9999 -9999 -9999 -9999 -9999 -9999 -9999 -9999 -9999 -9999 -9999 -9999 -9999 -9999 -9999 -9999 -9999 -9999 -9999 -9999 -9999 -9999 -9999 -9999 -9999 -9999 -9999 -9999 -9999 -9999 -9999 -9999 -9999 -9999 -9999 -9999 -9999 -9999 -9999 -9999 -9999 -9999 -9999 -9999 -9999 -9999 -9999 -9999 -9999 -9999 -9999 -9999 -9999 -9999 -9999 -9999 -9999 -9999 -9999 -9999 -9999 -9999 -9999 -9999 -9999 -9999 -9999 -9999 -9999 -9999 -9999 -9999 -9999 -9999 -9999 -9999 -9999 -9999 -9999 -9999 -9999 -9999 -9999 -9999 -9999 -9999 -9999 -9999 -9999 -9999 -9999 -9999 -9999 -9999 -9999 -9999 -9999 -9999 -9999 -9999 -9999 -9999 -9999 -9999 -9999 -9999 1227 1249 1261 1227 1209 1198 1174 1161 1149 1152 1141 1143 1155 1186 1185 1217 1232 1273 1286 1312 1340 1380 1409 1421 1430 1431 1434 1442 1443 1449 1443 1420 1409 1390 1358 1346 1334 1328 1339 1325 1316 1259 1176 1122 1129 1168 1176 1206 1299 1311 1311 1313 1316 1320 1321 1335 1345 1363 1401 1417 1427 1453 1507 1539 1572 1588 1621 1645 1660 1676 1677 1661 1640 1541 1504 1484 1413 1380 1348 1361 1325 1315 1290 1259 1253 1238 1226 1236 1249 1270 1321 1339 1351 1376 1454 1525 1616 1699 1722 1792 1829 1893 1922 1955 2021 2054 2085 2117 2140 2152 2168 2258 2324 2403 2431 2490 2513 2531 2564 2576 2553 2553 2528 2526 2525 2527 2533 2549 2568 2580 2581 2577 2518 2482 2444 2403 2305 2251 2218 2185 2183 2187 2193 2200 2204 2207 2212 2218 2227 2245 2304 2331 2352 2415 2453 2489 2548 2642 2669 2685 2561 2506 2473 2444 2377 2347 2337 2313 2299 2262 2215 2139 2134 2132 2022 1987 1932 1875 1768 1705 1673 1706 1701 1658 1599 1551 1550 1545 1466 1433 1411 1398 1364 1372 1371 1368 1352 1320 1292 1249 1242 1261 1249 1249 1237 1230 1224 1231 1230 1211 1231 1236 1261 1343 1382 1422 1396 1310 1204 1113 970 929 914 917 935 970 1019 1131 1184 1236 1351 1403 1474 1538 1635 1698 1755 1859 1895 1915 1945 2014 1956 1972 2013 2044 2094 2142 2132 2120 2114 2083 1980 1916 1907 1944 1972 2010 2004 1993 1957 1929 1929 1855 1848 1822 1805 1800 1813 1827 1844 1891 -9999 -9999 -9999 -9999 -9999 -9999 -9999 -9999 -9999 -9999 -9999 -9999 -9999 -9999 -9999 -9999 -9999 -9999 -9999 -9999 -9999 -9999 -9999 -9999 -9999 -9999 -9999 -9999 -9999 -9999 -9999 -9999 -9999 -9999 -9999 -9999 -9999 -9999 -9999 -9999 -9999 -9999 -9999 -9999 -9999 -9999 -9999 -9999 -9999 -9999 -9999 -9999 -9999 -9999 -9999 -9999 -9999 1812 1825 1809 1824 1861 1893 1833 1757 1713 1763 1728 1694 1698 1687 1680 1679 1723 1736 1734 1725 1691 1691 1709 1696 1695 1669 1638 1540 1479 1422 1297 1255 1219 1178 1238 1289 1346 1439 1474 1483 1456 1457 1483 1507 1534 1522 1498 1487 1452 1511 1555 1623 1641 1659 1678 1735
-9999 -9999 -9999 -9999 -9999 -9999 -9999 -9999 -9999 -9999 -9999 -9999 -9999 -9999 -9999 -9999 -9999 -9999 -9999 -9999 -9999 -9999 -9999 -9999 -9999 -9999 -9999 -9999 -9999 -9999 -9999 -9999 -9999 -9999 -9999 -9999 -9999 -9999 -9999 -9999 -9999 -9999 -9999 -9999 -9999 -9999 -9999 -9999 -9999 -9999 -9999 -9999 -9999 -9999 -9999 -9999 -9999 -9999 -9999 -9999 -9999 -9999 -9999 -9999 -9999 -9999 -9999 -9999 -9999 -9999 -9999 -9999 -9999 -9999 -9999 -9999 -9999 -9999 -9999 -9999 -9999 -9999 -9999 -9999 -9999 -9999 -9999 -9999 -9999 -9999 -9999 -9999 -9999 -9999 -9999 -9999 -9999 -9999 -9999 -9999 -9999 -9999 -9999 -9999 -9999 -9999 -9999 -9999 -9999 -9999 -9999 -9999 -9999 -9999 -9999 -9999 -9999 -9999 -9999 -9999 -9999 -9999 -9999 -9999 -9999 -9999 -9999 -9999 -9999 -9999 -9999 -9999 -9999 -9999 -9999 -9999 -9999 -9999 -9999 -9999 -9999 -9999 -9999 -9999 -9999 -9999 -9999 -9999 -9999 -9999 -9999 -9999 -9999 -9999 -9999 -9999 1190 1188 1172 1195 1189 1180 1149 1128 1130 1119 1115 1113 1123 1147 1160 1197 1212 1221 1236 1257 1300 1318 1329 1373 1384 1400 1399 1406 1402 1406 1379 1373 1360 1345 1320 1310 1299 1283 1274 1254 1229 1206 1186 1143 1133 1137 1140 1176 1264 1282 1283 1281 1283 1285 1283 1299 1309 1332 1347 1375 1399 1415 1465 1493 1546 1581 1592 1608 1621 1639 1631 1601 1558 1496 1444 1418 1353 1333 1310 1275 1261 1246 1227 1204 1204 1215 1222 1234 1249 1266 1300 1317 1335 1388 1414 1492 1595 1674 1717 1760 1821 1842 1883 1921 2000 2035 2068 2106 2118 2134 2156 2262 2325 2370 2416 2462 2510 2548 2584 2607 2624 2642 2641 2647 2659 2630 2579 2590 2615 2613 2615 2616 2529 2498 2469 2380 2335 2292 2258 2198 2184 2182 2210 2210 2215 2223 2215 2222 2226 2270 2306 2330 2350 2401 2438 2473 2525 2562 2587 2620 2557 2483 2441 2370 2343 2333 2322 2307 2282 2241 2149 2109 2094 2083 1979 1954 1931 1835 1773 1711 1681 1663 1661 1640 1571 1550 1538 1549 1490 1444 1407 1379 1350 1352 1360 1376 1370 1332 1260 1268 1255 1246 1268 1250 1229 1213 1211 1205 1201 1189 1200 1205 1262 1299 1336 1374 1384 1303 1200 1032 967 925 909 926 965 1009 1095 1137 1180 1226 1328 1377 1429 1516 1575 1621 1699 1857 1913 1945 2001 2019 2035 2038 2061 2084 2099 2045 2032 2074 2069 2061 2009 1962 1965 1990 2008 2048 2043 2043 2038 2012 1983 1975 2001 1976 1953 1967 1950 1905 1921 1947 1974 2001 -9999 -9999 -9999 -9999 -9999 -9999 -9999 -9999 -9999 -9999 -9999 -9999 -9999 -9999 -9999 -9999 -9999 -9999 -9999 -9999 -9999 -9999 -9999 -9999 -9999 -9999 -9999 -9999 -9999 -9999 -9999 -9999 -9999 -9999 -9999 -9999 -9999 -9999 -9999 -9999 -9999 -9999 -9999 -9999 -9999 -9999 -9999 -9999 -9999 -9999 -9999 -9999 -9999 1676 1703 1728 1727 1763 1785 1837 1826 1779 1752 1670 1708 1674 1634 1634 1631 1620 1620 1614 1627 1623 1623 1596 1578 1646 1639 1634 1611 1595 1524 1462 1402 1284 1240 1203 1168 1240 1288 1344 1448 1457 1419 1384 1412 1423 1470 1495 1468 1449 1433 1445 1500 1547 1615 1630 1648 1665 1710
-9999 -9999 -9999 -9999 -9999 -9999 -9999 -9999 -9999 -9999 -9999 -9999 -9999 -9999 -9999 -9999 -9999 -9999 -9999 -9999 -9999 -9999 -9999 -9999 -9999 -9999 -9999 -9999 -9999 -9999 -9999 -9999 -9999 -9999 -9999 -9999 -9999 -9999 -9999 -9999 -9999 -9999 -9999 -9999 -9999 -9999 -9999 -9999 -9999 -9999 -9999 -9999 -9999 -9999 -9999 -9999 -9999 -9999 -9999 -9999 -9999 -9999 -9999 -9999 -9999 -9999 -9999 -9999 -9999 -9999 -9999 -9999 -9999 -9999 -9999 -9999 -9999 -9999 -9999 -9999 -9999 -9999 -9999 -9999 -9999 -9999 -9999 -9999 -9999 -9999 -9999 -9999 -9999 -9999 -9999 -9999 -9999 -9999 -9999 -9999 -9999 -9999 -9999 -9999 -9999 -9999 -9999 -9999 -9999 -9999 -9999 -9999 -9999 -9999 -9999 -9999 -9999 -9999 -9999 -9999 -9999 -9999 -9999 -9999 -9999 -9999 -9999 -9999 -9999 -9999 -9999 -9999 -9999 -9999 -9999 -9999 -9999 -9999 -9999 -9999 -9999 -9999 -9999 -9999 -9999 -9999 -9999 -9999 -9999 -9999 -9999 -9999 -9999 -9999 -9999 1155 1160 1157 1144 1131 1117 1111 1100 1088 1077 1085 1083 1091 1108 1120 1138 1163 1187 1192 1209 1237 1274 1287 1296 1308 1314 1326 1339 1348 1345 1365 1345 1340 1327 1310 1289 1279 1269 1245 1237 1214 1187 1172 1163 1135 1074 1078 1095 1128 1183 1206 1255 1255 1257 1255 1258 1272 1285 1297 1324 1351 1372 1386 1435 1471 1498 1520 1526 1533 1550 1563 1593 1553 1497 1437 1392 1359 1302 1287 1272 1249 1237 1221 1207 1193 1197 1205 1230 1244 1260 1282 1327 1320 1336 1373 1410 1467 1552 1679 1715 1744 1799 1840 1886 1932 2017 2070 2095 2111 2120 2143 2170 2224 2274 2318 2388 2420 2473 2524 2568 2626 2657 2681 2683 2689 2704 2696 2677 2688 2686 2682 2677 2656 2551 2520 2491 2408 2369 2334 2294 2220 2197 2192 2217 2215 2216 2226 2215 2201 2184 2241 2265 2289 2340 2385 2407 2436 2486 2509 2530 2564 2546 2473 2436 2363 2339 2328 2317 2278 2234 2198 2114 2064 2024 2028 1931 1902 1886 1822 1761 1705 1677 1663 1655 1641 1586 1552 1542 1537 1518 1463 1398 1356 1343 1334 1339 1358 1352 1328 1279 1279 1269 1281 1322 1324 1288 1258 1249 1239 1231 1210 1174 1166 1185 1215 1291 1338 1373 1298 1200 1031 963 922 908 930 975 1026 1112 1148 1175 1211 1286 1322 1362 1445 1529 1601 1684 1831 1888 1908 1941 1952 1966 1977 2007 2028 2032 1992 1985 1980 1986 1993 1995 2013 2029 2030 2038 2047 2050 2057 2075 2088 2052 2057 2068 2067 2041 2029 2005 2043 2057 2076 2090 2112 2118 2052 -9999 -9999 -9999 -9999 -9999 -9999 -9999 -9999 -9999 -9999 -9999 -9999 -9999 -9999 -9999 -9999 -9999 -9999 -9999 -9999 -9999 -9999 -9999 -9999 -9999 -9999 -9999 -9999 -9999 -9999 -9999 -9999 -9999 -9999 -9999 -9999 -9999 -9999 -9999 -9999 -9999 -9999 -9999 -9999 -9999 -9999 -9999 1587 1633 1643 1642 1638 1667 1694 1695 1676 1703 1751 1754 1640 1638 1639 1653 1623 1584 1566 1568 1555 1561 1569 1578 1574 1579 1545 1526 1526 1523 1514 1505 1477 1443 1438 1378 1271 1226 1189 1152 1235 1283 1335 1425 1423 1381 1355 1389 1391 1404 1395 1373 1350 1386 1487 1515 1560 1611 1623 1641 1653 1689
-9999 -9999 -9999 -9999 -9999 -9999 -9999 -9999 -9999 -9999 -9999 -9999 -9999 -9999 -9999 -9999 -9999 -9999 -9999 -9999 -9999 -9999 -9999 -9999 -9999 -9999 -9999 -9999 -9999 -9999 -9999 -9999 -9999 -9999 -9999 -9999 -9999 -9999 -9999 -9999 -9999 -9999 -9999 -9999 -9999 -9999 -9999 -9999 -9999 -9999 -9999 -9999 -9999 -9999 -9999 -9999 -9999 -9999 -9999 -9999 -9999 -9999 -9999 -9999 -9999 -9999 -9999 -9999 -9999 -9999 -9999 -9999 -9999 -9999 -9999 -9999 -9999 -9999 -9999 -9999 -9999 -9999 -9999 -9999 -9999 -9999 -9999 -9999 -9999 -9999 -9999 -9999 -9999 -9999 -9999 -9999 -9999 -9999 -9999 -9999 -9999 -9999 -9999 -9999 -9999 -9999 -9999 -9999 -9999 -9999 -9999 -9999 -9999 -9999 -9999 -9999 -9999 -9999 -9999 -9999 -9999 -9999 -9999 -9999 -9999 -9999 -9999 -9999 -9999 -9999 -9999 -9999 -9999 -9999 -9999 -9999 -9999 -9999 -9999 -9999 -9999 -9999 -9999 -9999 -9999 -9999 -9999 -9999 -9999 -9999 -9999 -9999 -9999 -9999 1072 1121 1123 1125 1116 1103 1094 1095 1077 1065 1058 1070 1078 1082 1089 1083 1103 1125 1157 1170 1196 1207 1245 1257 1267 1288 1288 1303 1314 1326 1319 1308 1289 1285 1277 1264 1233 1221 1236 1214 1194 1173 1156 1135 1131 1122 1045 1044 1076 1108 1145 1158 1175 1195 1202 1213 1217 1229 1264 1269 1296 1318 1335 1351 1398 1437 1470 1501 1506 1498 1496 1509 1480 1442 1367 1335 1309 1283 1265 1247 1233 1223 1214 1197 1189 1192 1203 1216 1248 1264 1271 1296 1351 1368 1378 1407 1425 1460 1542 1678 1715 1749 1822 1862 1895 1935 2038 2084 2099 2110 2121 2145 2176 2228 2261 2309 2387 2427 2463 2510 2570 2610 2656 2715 2721 2729 2738 2748 2731 2736 2729 2722 2701 2655 2591 2565 2536 2454 2416 2375 2320 2238 2213 2211 2219 2202 2212 2225 2207 2178 2171 2232 2244 2266 2294 2360 2384 2422 2485 2506 2529 2541 2541 2480 2441 2360 2337 2326 2310 2252 2212 2176 2097 2048 2003 1952 1880 1863 1854 1791 1736 1709 1682 1663 1653 1643 1588 1566 1552 1546 1505 1456 1388 1361 1354 1347 1343 1324 1323 1338 1333 1289 1292 1321 1360 1385 1397 1341 1323 1315 1291 1216 1171 1151 1142 1190 1244 1285 1327 1265 1191 1024 961 921 906 939 984 1030 1114 1154 1178 1206 1276 1306 1351 1437 1489 1546 1647 1770 1786 1801 1877 1881 1882 1922 1946 1962 1961 1945 1928 1918 1916 1945 1942 1956 1981 1989 1985 1983 1987 2011 2038 2082 2083 2076 2082 2109 2114 2103 2088 2140 2148 2168 2180 2183 2188 2172 2170 2192 2203 -9999 -9999 -9999 -9999 -9999 -9999 -9999 -9999 -9999 -9999 -9999 -9999 -9999 -9999 -9999 -9999 -9999 -9999 -9999 -9999 -9999 -9999 -9999 -9999 -9999 -9999 -9999 -9999 -9999 -9999 -9999 -9999 -9999 -9999 -9999 -9999 -9999 -9999 -9999 -9999 -9999 -9999 1629 1571 1565 1608 1614 1613 1621 1630 1654 1651 1629 1644 1667 1708 1577 1552 1525 1515 1498 1472 1457 1444 1493 1497 1524 1524 1523 1528 1494 1472 1471 1466 1454 1442 1422 1391 1355 1315 1234 1198 1158 1138 1228 1275 1324 1390 1387 1349 1327 1368 1362 1369 1359 1339 1339 1447 1493 1527 1552 1577 1592 1604 1640 1676
-9999 -9999 -9999 -9999 -9999 -9999 -9999 -9999 -9999 -9999 -9999 -9999 -9999 -9999 -9999 -9999 -9999 -9999 -9999 -9999 -9999 -9999 -9999 -9999 -9999 -9999 -9999 -9999 -9999 -9999 -9999 -9999 -9999 -9999 -9999 -9999 -9999 -9999 -9999 -9999 -9999 -9999 -9999 -9999 -9999 -9999 -9999 -9999 -9999 -9999 -9999 -9999 -9999 -9999 -9999 -9999 -9999 -9999 -9999 -9999 -9999 -9999 -9999 -9999 -9999 -9999 -9999 -9999 -9999 -9999 -9999 -9999 -9999 -9999 -9999 -9999 -9999 -9999 -9999 -9999 -9999 -9999 -9999 -9999 -9999 -9999 -9999 -9999 -9999 -9999 -9999 -9999 -9999 -9999 -9999 -9999 -9999 -9999 -9999 -9999 -9999 -9999 -9999 -9999 -9999 -9999 -9999 -9999 -9999 -9999 -9999 -9999 -9999 -9999 -9999 -9999 -9999 -9999 -9999 -9999 -9999 -9999 -9999 -9999 -9999 -9999 -9999 -9999 -9999 -9999 -9999 -9999 -9999 -9999 -9999 -9999 -9999 -9999 -9999 -9999 -9999 -9999 -9999 -9999 -9999 -9999 -9999 -9999 -9999 -9999 -9999 -9999 -9999 1012 1040 1052 1056 1095 1087 1072 1069 1054 1055 1054 1049 1066 1070 1074 1070 1069 1089 1086 1123 1137 1140 1193 1210 1237 1236 1263 1265 1280 1292 1293 1280 1268 1270 1267 1251 1219 1204 1196 1183 1153 1135 1119 1097 1080 1098 1098 1037 1019 1056 1092 1101 1123 1143 1162 1175 1187 1199 1212 1215 1212 1252 1262 1275 1302 1367 1398 1441 1476 1472 1444 1455 1460 1426 1391 1331 1303 1276 1233 1210 1195 1190 1179 1175 1182 1203 1211 1219 1238 1274 1304 1309 1360 1388 1403 1415 1439 1458 1508 1648 1695 1735 1782 1867 1897 1930 1993 2051 2091 2101 2109 2123 2145 2208 2239 2283 2322 2395 2437 2470 2523 2559 2606 2647 2690 2769 2773 2786 2805 2794 2777 2780 2766 2710 2627 2606 2581 2551 2470 2432 2389 2295 2262 2244 2238 2196 2183 2214 2213 2200 2164 2180 2218 2225 2249 2302 2336 2368 2406 2469 2483 2505 2566 2533 2492 2453 2377 2336 2327 2268 2229 2188 2149 2071 2023 1964 1877 1863 1849 1843 1794 1730 1684 1659 1650 1646 1646 1634 1588 1577 1567 1536 1482 1422 1399 1390 1373 1346 1339 1339 1350 1359 1333 1334 1379 1417 1450 1473 1427 1406 1412 1237 1188 1142 1107 1108 1163 1207 1290 1291 1225 1173 1018 968 924 906 938 978 1019 1116 1159 1179 1233 1269 1303 1352 1425 1470 1528 1707 1723 1744 1754 1761 1767 1796 1800 1817 1822 1894 1907 1874 1871 1872 1883 1894 1900 1918 1937 1949 1932 1922 1948 1964 1979 1983 1984 2013 2023 2042 2107 2151 2186 2207 2248 2254 2252 2251 2265 2249 2252 2219 2182 2170 -9999 -9999 -9999 -9999 -9999 -9999 -9999 -9999 -9999 -9999 -9999 -9999 -9999 -9999 -9999 -9999 -9999 -9999 -9999 -9999 -9999 -9999 -9999 -9999 -9999 -9999 -9999 -9999 -9999 -9999 -9999 -9999 -9999 -9999 -9999 -9999 -9999 1744 1747 1708 1665 1576 1537 1553 1560 1564 1554 1586 1593 1600 1590 1588 1609 1595 1536 1490 1458 1442 1442 1416 1390 1389 1383 1381 1408 1416 1425 1420 1444 1425 1416 1407 1392 1382 1351 1339 1314 1278 1203 1163 1127 1175 1223 1256 1284 1322 1316 1299 1319 1335 1328 1332 1315 1306 1343 1452 1496 1522 1527 1542 1556 1576 1605 1616
-9999 -9999 -9999 -9999 -9999 -9999 -9999 -9999 -9999 -9999 -9999 -9999 -9999 -9999 -9999 -9999 -9999 -9999 -9999 -9999 -9999 -9999 -9999 -9999 -9999 -9999 -9999 -9999 -9999 -9999 -9999 -9999 -9999 -9999 -9999 -9999 -9999 -9999 -9999 -9999 -9999 -9999 -9999 -9999 -9999 -9999 -9999 -9999 -9999 -9999 -9999 -9999 -9999 -9999 -9999 -9999 -9999 -9999 -9999 -9999 -9999 -9999 -9999 -9999 -9999 -9999 -9999 -9999 -9999 -9999 -9999 -9999 -9999 -9999 -9999 -9999 -9999 -9999 -9999 -9999 -9999 -9999 -9999 -9999 -9999 -9999 -9999 -9999 -9999 -9999 -9999 -9999 -9999 -9999 -9999 -9999 -9999 -9999 -9999 -9999 -9999 -9999 -9999 -9999 -9999 -9999 -9999 -9999 -9999 -9999 -9999 -9999 -9999 -9999 -9999 -9999 -9999 -9999 -9999 -9999 -9999 -9999 -9999 -9999 -9999 -9999 -9999 -9999 -9999 -9999 -9999 -9999 -9999 -9999 -9999 -9999 -9999 -9999 -9999 -9999 -9999 -9999 -9999 -9999 -9999 -9999 -9999 -9999 -9999 -9999 -9999 -9999 990 995 1016 1023 1029 1038 1032 1005 1000 984 1000 1039 1046 1050 1057 1067 1057 1050 1063 1074 1099 1113 1134 1178 1196 1210 1198 1207 1219 1219 1227 1254 1246 1238 1244 1237 1223 1196 1186 1174 1160 1129 1115 1098 1073 1056 1039 1030 1003 966 986 1006 1059 1079 1101 1133 1141 1149 1162 1174 1179 1184 1225 1235 1247 1282 1306 1336 1367 1407 1397 1382 1426 1410 1383 1347 1292 1272 1248 1194 1178 1170 1169 1164 1173 1204 1281 1309 1331 1369 1438 1482 1399 1444 1449 1445 1457 1480 1508 1575 1687 1709 1747 1788 1883 1916 1950 2019 2053 2080 2096 2112 2129 2148 2215 2252 2303 2341 2421 2453 2478 2526 2549 2594 2626 2686 2768 2822 2841 2841 2832 2776 2711 2766 2717 2637 2619 2594 2562 2481 2441 2401 2314 2278 2258 2245 2194 2199 2220 2213 2187 2181 2209 2221 2226 2244 2285 2325 2353 2387 2448 2469 2515 2569 2548 2509 2471 2393 2359 2323 2214 2176 2143 2095 2040 1991 1928 1872 1861 1840 1831 1792 1731 1680 1660 1652 1654 1650 1650 1642 1637 1650 1616 1595 1582 1437 1425 1399 1378 1368 1370 1380 1383 1367 1359 1394 1432 1466 1496 1518 1495 1450 1225 1153 1116 1092 1075 1125 1165 1249 1231 1169 1148 1007 961 924 899 921 958 996 1079 1109 1138 1216 1256 1305 1354 1405 1452 1527 1664 1676 1698 1698 1712 1722 1736 1740 1753 1762 1758 1786 1771 1791 1783 1782 1854 1851 1870 1899 1902 1860 1852 1870 1887 1924 1928 1941 1993 2008 2017 2023 2057 2094 2121 2205 2239 2308 2307 2313 2324 2291 2180 2139 2126 2093 2009 -9999 -9999 -9999 -9999 -9999 -9999 -9999 -9999 -9999 -9999 -9999 -9999 -9999 -9999 -9999 -9999 -9999 -9999 -9999 -9999 -9999 -9999 -9999 -9999 -9999 -9999 -9999 -9999 -9999 -9999 -9999 -9999 1827 1824 1773 1770 1779 1724 1676 1598 1540 1530 1533 1537 1518 1507 1503 1516 1512 1502 1522 1553 1482 1440 1403 1370 1370 1351 1340 1334 1331 1332 1348 1362 1370 1368 1350 1325 1308 1311 1291 1276 1302 1292 1276 1241 1177 1145 1102 1170 1211 1233 1252 1282 1283 1274 1222 1224 1233 1239 1292 1326 1356 1460 1495 1505 1501 1510 1523 1546 1570 1583
-9999 -9999 -9999 -9999 -9999 -9999 -9999 -9999 -9999 -9999 -9999 -9999 -9999 -9999 -9999 -9999 -9999 -9999 -9999 -9999 -9999 -9999 -9999 -9999 -9999 -9999 -9999 -9999 -9999 -9999 -9999 -9999 -9999 -9999 -9999 -9999 -9999 -9999 -9999 -9999 -9999 -9999 -9999 -9999 -9999 -9999 -9999 -9999 -9999 -9999 -9999 -9999 -9999 -9999 -9999 -9999 -9999 -9999 -9999 -9999 -9999 -9999 -9999 -9999 -9999 -9999 -9999 -9999 -9999 -9999 -9999 -9999 -9999 -9999 -9999 -9999 -9999 -9999 -9999 -9999 -9999 -9999 -9999 -9999 -9999 -9999 -9999 -9999 -9999 -9999 -9999 -9999 -9999 -9999 -9999 -9999 -9999 -9999 -9999 -9999 -9999 -9999 -9999 -9999 -9999 -9999 -9999 -9999 -9999 -9999 -9999 -9999 -9999 -9999 -9999 -9999 -9999 -9999 -9999 -9999 -9999 -9999 -9999 -9999 -9999 -9999 -9999 -9999 -9999 -9999 -9999 -9999 -9999 -9999 -9999 -9999 -9999 -9999 -9999 -9999 -9999 -9999 -9999 -9999 -9999 -9999 -9999 -9999 -9999 -9999 -9999 946 971 974 986 998 996 997 995 972 971 968 968 993 1002 1021 1029 1031 1003 1034 1041 1059 1087 1111 1137 1162 1172 1179 1176 1175 1184 1180 1193 1185 1185 1195 1177 1166 1157 1175 1165 1150 1137 1111 1094 1073 1052 1038 1025 1009 968 940 941 962 971 986 1006 1041 1052 1064 1135 1140 1136 1155 1195 1206 1223 1254 1273 1301 1317 1345 1348 1349 1361 1335 1307 1281 1231 1208 1216 1169 1160 1154 1153 1207 1219 1273 1372 1401 1441 1469 1565 1588 1636 1657 1689 1624 1565 1629 1586 1671 1735 1749 1785 1847 1942 1956 1983 2048 2068 2082 2098 2131 2148 2200 2295 2356 2424 2454 2469 2465 2488 2527 2549 2583 2607 2686 2753 2802 2786 2767 2738 2685 2621 2629 2670 2660 2649 2629 2611 2497 2453 2413 2332 2295 2267 2252 2205 2218 2221 2210 2174 2195 2220 2232 2240 2247 2284 2302 2324 2353 2439 2484 2518 2569 2564 2530 2488 2401 2347 2287 2184 2150 2115 2068 2006 1961 1917 1891 1887 1879 1845 1793 1726 1687 1663 1656 1657 1653 1659 1657 1656 1694 1691 1682 1665 1577 1574 1542 1520 1536 1522 1422 1413 1401 1385 1407 1440 1481 1517 1535 1509 1461 1248 1168 1119 1082 1040 1038 1070 1144 1132 1114 1086 991 945 908 887 900 932 973 1055 1095 1128 1187 1227 1278 1322 1419 1477 1533 1586 1590 1641 1652 1661 1673 1673 1691 1686 1708 1705 1728 1723 1737 1741 1738 1759 1775 1785 1790 1784 1763 1811 1828 1854 1879 1891 1916 1965 1978 1988 1993 2034 2058 2075 2166 2193 2214 2238 2315 2339 2290 2144 2110 2075 2054 1964 1932 1910 1870 -9999 -9999 -9999 -9999 -9999 -9999 -9999 -9999 -9999 -9999 -9999 -9999 -9999 -9999 -9999 -9999 -9999 -9999 -9999 -9999 -9999 -9999 -9999 -9999 -9999 -9999 -9999 1827 1825 1825 1821 1833 1813 1789 1731 1686 1615 1556 1507 1507 1504 1489 1476 1468 1471 1474 1465 1470 1454 1409 1337 1301 1264 1253 1298 1288 1283 1278 1274 1287 1300 1315 1303 1290 1271 1255 1254 1238 1221 1217 1201 1190 1161 1109 1090 1089 1139 1165 1194 1214 1238 1243 1221 1175 1188 1212 1245 1315 1347 1385 1456 1461 1447 1437 1426 1444 1512 1535 1557
-9999 -9999 -9999 -9999 -9999 -9999 -9999 -9999 -9999 -9999 -9999 -9999 -9999 -9999 -9999 -9999 -9999 -9999 -9999 -9999 -9999 -9999 -9999 -9999 -9999 -9999 -9999 -9999 -9999 -9999 -9999 -9999 -9999 -9999 -9999 -9999 -9999 -9999 -9999 -9999 -9999 -9999 -9999 -9999 -9999 -9999 -9999 -9999 -9999 -9999 -9999 -9999 -9999 -9999 -9999 -9999 -9999 -9999 -9999 -9999 -9999 -9999 -9999 -9999 -9999 -9999 -9999 -9999 -9999 -9999 -9999 -9999 -9999 -9999 -9999 -9999 -9999 -9999 -9999 -9999 -9999 -9999 -9999 -9999 -9999 -9999 -9999 -9999 -9999 -9999 -9999 -9999 -9999 -9999 -9999 -9999 -9999 -9999 -9999 -9999 -9999 -9999 -9999 -9999 -9999 -9999 -9999 -9999 -9999 -9999 -9999 -9999 -9999 -9999 -9999 -9999 -9999 -9999 -9999 -9999 -9999 -9999 -9999 -9999 -9999 -9999 -9999 -9999 -9999 -9999 -9999 -9999 -9999 -9999 -9999 -9999 -9999 -9999 -9999 -9999 -9999 -9999 -9999 -9999 -9999 -9999 -9999 -9999 -9999 -9999 875 901 920 918 954 951 949 943 949 935 943 942 931 943 967 989 993 993 971 982 995 1013 1024 1056 1089 1155 1158 1158 1158 1150 1153 1150 1157 1152 1153 1152 1138 1132 1128 1122 1118 1101 1085 1054 1042 1053 1027 1013 1000 981 932 913 909 917 926 943 953 978 997 1013 1045 1055 1057 1089 1124 1142 1196 1229 1245 1260 1279 1302 1305 1312 1322 1310 1280 1256 1207 1182 1166 1143 1151 1163 1199 1320 1284 1350 1460 1496 1550 1570 1655 1676 1711 1739 1765 1768 1655 1701 1715 1765 1846 1877 1909 1918 1972 2016 2041 2084 2114 2130 2144 2191 2233 2268 2354 2393 2447 2502 2511 2511 2514 2543 2557 2574 2597 2697 2757 2760 2707 2687 2638 2591 2549 2555 2592 2647 2650 2625 2612 2532 2484 2444 2367 2326 2288 2256 2227 2231 2226 2206 2182 2218 2227 2238 2251 2255 2293 2303 2330 2356 2410 2440 2470 2560 2557 2522 2498 2402 2325 2265 2164 2127 2091 2044 2004 1985 1957 1908 1901 1886 1863 1795 1733 1707 1704 1701 1666 1668 1672 1661 1668 1731 1745 1750 1736 1662 1678 1640 1612 1635 1619 1560 1470 1458 1466 1486 1526 1505 1533 1558 1537 1476 1278 1190 1125 1087 1055 1024 1022 1078 1075 1014 989 939 912 886 861 880 905 945 1023 1063 1102 1159 1204 1255 1312 1426 1483 1520 1539 1551 1566 1576 1582 1582 1588 1596 1638 1656 1672 1677 1679 1690 1687 1698 1713 1744 1736 1735 1722 1729 1751 1780 1795 1808 1830 1844 1931 1950 1952 1979 2005 2026 2038 2120 2143 2170 2234 2285 2299 2272 2139 2083 2037 1986 1946 1915 1899 1837 1815 1795 1757 -9999 -9999 -9999 -9999 -9999 -9999 -9999 -9999 -9999 -9999 -9999 -9999 -9999 -9999 -9999 -9999 -9999 -9999 -9999 -9999 -9999 -9999 1868 1862 1827 1831 1835 1839 1833 1817 1791 1731 1672 1646 1600 1549 1502 1478 1462 1448 1432 1427 1430 1428 1422 1398 1369 1294 1243 1223 1215 1202 1197 1196 1189 1171 1173 1238 1243 1233 1217 1210 1192 1195 1185 1165 1169 1147 1143 1101 1081 1061 1044 1086 1097 1110 1139 1148 1182 1167 1165 1213 1251 1315 1341 1370 1398 1423 1416 1409 1384 1388 1420 1440 1483 1490
-9999 -9999 -9999 -9999 -9999 -9999 -9999 -9999 -9999 -9999 -9999 -9999 -9999 -9999 -9999 -9999 -9999 -9999 -9999 -9999 -9999 -9999 -9999 -9999 -9999 -9999 -9999 -9999 -9999 -9999 -9999 -9999 -9999 -9999 -9999 -9999 -9999 -9999 -9999 -9999 -9999 -9999 -9999 -9999 -9999 -9999 -9999 -9999 -9999 -9999 -9999 -9999 -9999 -9999 -9999 -9999 -9999 -9999 -9999 -9999 -9999 -9999 -9999 -9999 -9999 -9999 -9999 -9999 -9999 -9999 -9999 -9999 -9999 -9999 -9999 -9999 -9999 -9999 -9999 -9999 -9999 -9999 -9999 -9999 -9999 -9999 -9999 -9999 -9999 -9999 -9999 -9999 -9999 -9999 -9999 -9999 -9999 -9999 -9999 -9999 -9999 -9999 -9999 -9999 -9999 -9999 -9999 -9999 -9999 -9999 -9999 -9999 -9999 -9999 -9999 -9999 -9999 -9999 -9999 -9999 -9999 -9999 -9999 -9999 -9999 -9999 -9999 -9999 -9999 -9999 -9999 -9999 -9999 -9999 -9999 -9999 -9999 -9999 -9999 -9999 -9999 -9999 -9999 -9999 -9999 -9999 -9999 -9999 -9999 918 829 882 890 876 864 866 858 859 864 869 913 913 900 930 938 951 957 955 936 956 952 962 987 1015 1048 1093 1098 1101 1106 1103 1092 1123 1122 1121 1119 1112 1104 1099 1096 1086 1077 1056 1023 1015 1004 993 957 935 922 889 868 883 880 886 894 903 922 926 941 959 992 1006 1031 1078 1089 1104 1117 1148 1171 1198 1217 1204 1253 1257 1286 1275 1251 1202 1184 1163 1142 1163 1169 1187 1307 1378 1435 1479 1617 1687 1731 1796 1722 1757 1798 1844 1845 1844 1701 1776 1843 1827 1872 1907 1919 1937 1960 1994 2023 2112 2142 2159 2212 2248 2286 2323 2399 2425 2458 2529 2550 2541 2531 2549 2559 2579 2634 2681 2722 2686 2555 2516 2505 2517 2497 2495 2513 2588 2621 2602 2577 2541 2501 2464 2386 2345 2311 2271 2266 2256 2250 2222 2237 2236 2235 2253 2262 2269 2307 2310 2338 2374 2401 2423 2446 2520 2525 2496 2446 2408 2352 2284 2177 2131 2082 2018 2007 1993 1976 1944 1929 1908 1845 1794 1746 1738 1735 1727 1717 1716 1706 1690 1711 1790 1794 1821 1796 1737 1740 1715 1690 1701 1693 1538 1503 1509 1516 1537 1562 1585 1631 1654 1638 1556 1357 1214 1143 1086 1076 1049 1012 1025 1021 977 933 917 900 883 858 854 862 924 953 989 1017 1139 1205 1257 1344 1390 1447 1473 1498 1509 1525 1543 1542 1538 1543 1556 1560 1572 1587 1596 1607 1615 1645 1659 1668 1707 1700 1698 1675 1686 1710 1732 1767 1786 1796 1807 1863 1878 1894 1913 1930 1953 2002 2069 2094 2127 2235 2270 2250 2229 2138 2070 2023 1981 1947 1922 1902 1807 1776 1757 1701 1668 1653 -9999 -9999 -9999 -9999 -9999 -9999 -9999 -9999 -9999 -9999 -9999 -9999 -9999 -9999 -9999 -9999 -9999 -9999 1909 1876 1865 1869 1837 1835 1845 1849 1843 1823 1803 1711 1689 1689 1623 1580 1540 1491 1402 1384 1363 1336 1338 1383 1373 1338 1302 1251 1204 1189 1180 1162 1160 1163 1150 1129 1125 1131 1132 1115 1101 1092 1083 1080 1131 1123 1119 1104 1098 1075 1054 1034 1030 1065 1073 1083 1103 1116 1118 1102 1193 1244 1283 1330 1360 1379 1390 1385 1370 1356 1339 1360 1387 1412 1450 1454
-9999 -9999 -9999 -9999 -9999 -9999 -9999 -9999 -9999 -9999 -9999 -9999 -9999 -9999 -9999 -9999 -9999 -9999 -9999 -9999 -9999 -9999 -9999 -9999 -9999 -9999 -9999 -9999 -9999 -9999 -9999 -9999 -9999 -9999 -9999 -9999 -9999 -9999 -9999 -9999 -9999 -9999 -9999 -9999 -9999 -9999 -9999 -9999 -9999 -9999 -9999 -9999 -9999 -9999 -9999 -9999 -9999 -9999 -9999 -9999 -9999 -9999 -9999 -9999 -9999 -9999 -9999 -9999 -9999 -9999 -9999 -9999 -9999 -9999 -9999 -9999 -9999 -9999 -9999 -9999 -9999 -9999 -9999 -9999 -9999 -9999 -9999 -9999 -9999 -9999 -9999 -9999 -9999 -9999 -9999 -9999 -9999 -9999 -9999 -9999 -9999 -9999 -9999 -9999 -9999 -9999 -9999 -9999 -9999 -9999 -9999 -9999 -9999 -9999 -9999 -9999 -9999 -9999 -9999 -9999 -9999 -9999 -9999 -9999 -9999 -9999 -9999 -9999 -9999 -9999 -9999 -9999 -9999 -9999 -9999 -9999 -9999 -9999 -9999 -9999 -9999 -9999 -9999 -9999 -9999 -9999 -9999 -9999 913 894 813 848 852 835 829 828 821 831 828 834 838 835 859 871 885 875 918 915 897 916 907 921 949 981 1004 1039 1048 1052 1063 1064 1057 1061 1059 1052 1035 1037 1032 1064 1057 1043 1025 1000 972 967 963 958 918 900 883 851 840 835 839 850 853 854 856 893 902 914 948 957 991 1040 1052 1061 1082 1117 1140 1161 1168 1163 1169 1188 1202 1189 1163 1128 1154 1137 1139 1190 1205 1245 1384 1466 1512 1550 1673 1733 1785 1883 1900 1922 1961 2032 2080 2089 1802 1793 1858 1927 1901 1907 1922 1931 1953 1988 2023 2130 2161 2189 2253 2284 2324 2356 2421 2443 2461 2522 2554 2573 2534 2548 2551 2586 2646 2679 2704 2649 2487 2459 2456 2419 2408 2414 2445 2408 2411 2523 2565 2535 2511 2482 2419 2368 2338 2300 2290 2277 2263 2240 2255 2251 2251 2273 2276 2295 2323 2321 2345 2374 2391 2412 2431 2472 2486 2475 2438 2403 2352 2299 2192 2153 2098 2027 2015 2001 1987 1982 1959 1937 1874 1817 1800 1784 1754 1756 1748 1757 1749 1760 1777 1834 1873 1920 1936 1913 1907 1879 1767 1776 1755 1578 1549 1564 1570 1579 1601 1624 1685 1712 1687 1592 1397 1308 1215 1141 1112 1081 1052 981 974 954 908 896 883 878 860 854 850 895 921 952 992 1097 1141 1188 1278 1325 1374 1438 1461 1465 1473 1494 1496 1487 1499 1513 1525 1539 1546 1549 1566 1585 1586 1596 1596 1608 1610 1608 1641 1640 1665 1672 1717 1739 1761 1784 1825 1828 1846 1870 1893 1910 1909 1964 2053 2107 2197 2218 2218 2179 2135 2074 2016 1966 1944 1919 1890 1799 1770 1747 1686 1653 1633 1642 1710 1762 -9999 -9999 -9999 -9999 -9999 -9999 -9999 -9999 -9999 -9999 -9999 -9999 -9999 1966 1958 1923 1904 1886 1872 1862 1860 1855 1871 1871 1842 1812 1722 1728 1703 1648 1608 1564 1499 1400 1366 1336 1299 1293 1288 1272 1252 1213 1203 1240 1185 1177 1163 1136 1126 1111 1090 1082 1088 1079 1075 1060 1056 1049 1041 1035 1030 1026 1024 1022 1014 1031 1014 1014 1036 1044 1052 1075 1085 1091 1089 1181 1215 1241 1291 1300 1307 1313 1285 1270 1252 1297 1332 1374 1415 1416 1422
-9999 -9999 -9999 -9999 -9999 -9999 -9999 -9999 -9999 -9999 -9999 -9999 -9999 -9999 -9999 -9999 -9999 -9999 -9999 -9999 -9999 -9999 -9999 -9999 -9999 -9999 -9999 -9999 -9999 -9999 -9999 -9999 -9999 -9999 -9999 -9999 -9999 -9999 -9999 -9999 -9999 -9999 -9999 -9999 -9999 -9999 -9999 -9999 -9999 -9999 -9999 -9999 -9999 -9999 -9999 -9999 -9999 -9999 -9999 -9999 -9999 -9999 -9999 -9999 -9999 -9999 -9999 -9999 -9999 -9999 -9999 -9999 -9999 -9999 -9999 -9999 -9999 -9999 -9999 -9999 -9999 -9999 -9999 -9999 -9999 -9999 -9999 -9999 -9999 -9999 -9999 -9999 -9999 -9999 -9999 -9999 -9999 -9999 -9999 -9999 -9999 -9999 -9999 -9999 -9999 -9999 -9999 -9999 -9999 -9999 -9999 -9999 -9999 -9999 -9999 -9999 -9999 -9999 -9999 -9999 -9999 -9999 -9999 -9999 -9999 -9999 -9999 -9999 -9999 -9999 -9999 -9999 -9999 -9999 -9999 -9999 -9999 -9999 -9999 -9999 -9999 -9999 -9999 -9999 -9999 -9999 -9999 -9999 855 840 782 787 822 805 796 796 800 807 801 806 813 818 824 835 842 839 842 842 841 842 844 854 909 935 949 980 991 999 1021 1025 1020 1020 1016 1003 997 999 997 990 980 959 938 910 891 918 914 905 877 862 843 823 823 824 824 825 831 833 834 837 840 848 878 886 907 992 1007 1020 1037 1079 1100 1112 1117 1132 1148 1160 1163 1153 1122 1111 1124 1144 1180 1270 1310 1353 1445 1511 1558 1604 1705 1753 1799 1938 1982 2006 2059 2133 2179 2134 2060 2097 2100 2089 2054 2010 1922 1924 1946 1982 2029 2153 2175 2203 2270 2303 2341 2372 2426 2445 2461 2501 2496 2433 2414 2470 2476 2554 2565 2631 2679 2617 2428 2409 2394 2378 2387 2399 2410 2352 2349 2367 2447 2404 2423 2422 2434 2433 2392 2336 2319 2303 2279 2257 2265 2260 2260 2279 2284 2302 2331 2345 2361 2374 2393 2413 2432 2452 2465 2462 2430 2400 2363 2321 2227 2167 2105 2037 2021 2007 1997 1986 1982 1975 1948 1904 1862 1845 1794 1795 1791 1795 1798 1821 1837 1870 1902 1942 2016 2011 1980 1944 1930 1913 1831 1657 1653 1660 1620 1614 1636 1671 1744 1770 1740 1606 1413 1338 1260 1172 1137 1100 1067 1031 1018 1000 986 959 926 866 856 853 846 879 900 932 969 1072 1111 1147 1239 1286 1339 1380 1401 1401 1401 1394 1400 1443 1466 1477 1496 1505 1508 1513 1524 1547 1552 1555 1553 1559 1567 1562 1545 1556 1569 1580 1628 1648 1715 1751 1768 1779 1801 1837 1851 1857 1876 1968 2027 2077 2155 2181 2152 2103 2052 2035 2013 1966 1925 1898 1874 1794 1763 1734 1668 1635 1621 1640 1713 1763 1843 1980 -9999 -9999 -9999 -9999 -9999 -9999 -9999 -9999 -9999 2029 1962 1957 1952 1940 1928 1921 1898 1862 1861 1864 1876 1858 1819 1796 1787 1769 1751 1667 1625 1563 1499 1396 1355 1321 1278 1263 1252 1238 1220 1220 1236 1281 1250 1237 1221 1179 1158 1140 1081 1077 1071 1066 1054 1049 1042 1033 1027 1028 1020 1026 1009 998 997 993 985 983 983 994 1010 1051 1059 1052 1088 1148 1177 1201 1248 1254 1262 1255 1239 1228 1194 1267 1318 1345 1342 1356 1369
-9999 -9999 -9999 -9999 -9999 -9999 -9999 -9999 -9999 -9999 -9999 -9999 -9999 -9999 -9999 -9999 -9999 -9999 -9999 -9999 -9999 -9999 -9999 -9999 -9999 -9999 -9999 -9999 -9999 -9999 -9999 -9999 -9999 -9999 -9999 -9999 -9999 -9999 -9999 -9999 -9999 -9999 -9999 -9999 -9999 -9999 -9999 -9999 -9999 -9999 -9999 -9999 -9999 -9999 -9999 -9999 -9999 -9999 -9999 -9999 -9999 -9999 -9999 -9999 -9999 -9999 -9999 -9999 -9999 -9999 -9999 -9999 -9999 -9999 -9999 -9999 -9999 -9999 -9999 -9999 -9999 -9999 -9999 -9999 -9999 -9999 -9999 -9999 -9999 -9999 -9999 -9999 -9999 -9999 -9999 -9999 -9999 -9999 -9999 -9999 -9999 -9999 -9999 -9999 -9999 -9999 -9999 -9999 -9999 -9999 -9999 -9999 -9999 -9999 -9999 -9999 -9999 -9999 -9999 -9999 -9999 -9999 -9999 -9999 -9999 -9999 -9999 -9999 -9999 -9999 -9999 -9999 -9999 -9999 -9999 -9999 -9999 -9999 -9999 -9999 -9999 -9999 -9999 -9999 -9999 -9999 861 841 823 825 765 761 760 760 756 757 759 769 783 786 799 803 799 804 798 804 814 816 821 819 824 832 835 834 845 858 876 905 969 971 975 978 978 971 971 972 968 959 943 929 904 877 855 839 824 815 814 815 815 813 815 816 819 818 819 823 827 829 831 844 854 860 876 914 922 941 974 988 1001 1056 1100 1118 1125 1128 1129 1117 1089 1112 1131 1159 1253 1310 1351 1405 1569 1663 1667 1751 1792 1825 1822 1921 1972 2018 2099 2135 2145 2150 2137 2135 2135 2114 2093 2052 1965 1949 1976 2025 2179 2204 2198 2223 2291 2325 2355 2409 2424 2438 2450 2484 2441 2384 2391 2412 2405 2385 2433 2496 2553 2386 2331 2362 2336 2335 2363 2371 2317 2306 2303 2308 2386 2343 2364 2342 2373 2394 2399 2444 2407 2354 2309 2277 2273 2264 2274 2282 2288 2328 2337 2346 2355 2378 2397 2419 2453 2467 2483 2471 2436 2411 2384 2317 2265 2197 2132 2052 2032 2017 2000 1998 2000 1997 2020 1988 1951 1910 1889 1873 1877 1884 1892 1907 1901 1921 1951 1978 2054 2079 2055 2015 2000 1939 1847 1695 1699 1674 1634 1636 1661 1704 1790 1839 1805 1582 1483 1395 1323 1220 1176 1140 1087 1074 1061 1054 1034 999 964 895 867 844 836 837 863 913 991 1035 1079 1117 1204 1249 1299 1349 1357 1363 1362 1357 1363 1390 1401 1422 1431 1447 1453 1489 1484 1504 1518 1521 1517 1524 1528 1522 1530 1538 1545 1554 1595 1628 1657 1698 1681 1694 1715 1761 1807 1826 1897 1954 2003 2053 2119 2140 2115 2027 2003 1996 1974 1928 1905 1860 1794 1752 1718 1693 1628 1616 1617 1690 1733 1784 1860 2001 2051 2124 -9999 -9999 -9999 -9999 -9999 2108 2078 1965 1960 1953 1945 1948 1929 1933 1889 1874 1865 1868 1878 1826 1797 1808 1806 1791 1755 1644 1601 1564 1448 1400 1358 1324 1263 1254 1252 1248 1248 1258 1284 1321 1292 1279 1228 1206 1187 1178 1148 1133 1121 1107 1092 1090 1053 1040 1036 1035 1064 1063 1041 1015 988 980 974 975 970 971 987 1006 1008 1033 1050 1070 1085 1162 1184 1198 1215 1207 1205 1189 1157 1243 1281 1296 1307 1319 1340
-9999 -9999 -9999 -9999 -9999 -9999 -9999 -9999 -9999 -9999 -9999 -9999 -9999 -9999 -9999 -9999 -9999 -9999 -9999 -9999 -9999 -9999 -9999 -9999 -9999 -9999 -9999 -9999 -9999 -9999 -9999 -9999 -9999 -9999 -9999 -9999 -9999 -9999 -9999 -9999 -9999 -9999 -9999 -9999 -9999 -9999 -9999 -9999 -9999 -9999 -9999 -9999 -9999 -9999 -9999 -9999 -9999 -9999 -9999 -9999 -9999 -9999 -9999 -9999 -9999 -9999 -9999 -9999 -9999 -9999 -9999 -9999 -9999 -9999 -9999 -9999 -9999 -9999 -9999 -9999 -9999 -9999 -9999 -9999 -9999 -9999 -9999 -9999 -9999 -9999 -9999 -9999 -9999 -9999 -9999 -9999 -9999 -9999 -9999 -9999 -9999 -9999 -9999 -9999 -9999 -9999 -9999 -9999 -9999 -9999 -9999 -9999 -9999 -9999 -9999 -9999 -9999 -9999 -9999 -9999 -9999 -9999 -9999 -9999 -9999 -9999 -9999 -9999 -9999 -9999 -9999 -9999 -9999 -9999 -9999 -9999 -9999 -9999 -9999 -9999 -9999 -9999 -9999 -9999 -9999 -9999 833 817 800 780 758 752 757 752 753 752 754 763 764 770 774 772 769 773 783 787 793 801 802 806 807 813 812 803 818 831 847 869 896 898 909 901 903 907 937 934 932 924 907 890 870 850 826 815 811 812 813 816 814 814 814 815 819 820 821 821 825 828 830 839 841 840 852 881 890 903 935 950 977 1005 1042 1061 1075 1084 1081 1088 1067 1123 1150 1181 1289 1347 1398 1451 1621 1709 1728 1752 1765 1785 1781 1810 1845 1887 1930 1945 2057 2089 2159 2178 2169 2154 2132 2060 2011 2002 2047 2090 2215 2229 2249 2276 2326 2343 2366 2408 2418 2428 2442 2458 2377 2328 2340 2366 2349 2336 2412 2509 2503 2368 2291 2271 2265 2261 2301 2314 2232 2263 2257 2252 2318 2282 2312 2286 2314 2334 2338 2382 2441 2457 2355 2329 2315 2301 2316 2332 2342 2337 2346 2353 2357 2380 2400 2426 2465 2484 2496 2493 2453 2436 2419 2383 2370 2349 2272 2161 2110 2099 2032 2033 2035 2043 2067 2065 2048 2025 2001 1930 1914 1928 1929 1939 1950 1967 1980 2004 2075 2118 2126 2091 2048 1970 1871 1729 1725 1690 1653 1644 1659 1699 1795 1854 1899 1744 1649 1547 1475 1346 1302 1209 1170 1150 1135 1120 1110 1052 1003 923 889 857 839 830 844 863 925 970 1012 1042 1123 1210 1260 1296 1307 1323 1325 1318 1335 1361 1374 1399 1399 1414 1422 1431 1426 1431 1437 1447 1451 1440 1486 1482 1507 1514 1513 1531 1558 1600 1629 1659 1657 1679 1706 1737 1752 1764 1851 1889 1945 1995 2089 2106 2084 2000 1965 1953 1933 1857 1858 1832 1771 1728 1695 1674 1610 1597 1621 1703 1756 1816 1879 1973 2028 2102 2222 2272 2257 2217 2138 2108 2071 1983 1971 1959 1958 1949 1943 1942 1958 1952 1947 1894 1873 1807 1796 1812 1827 1804 1765 1649 1588 1538 1454 1415 1370 1336 1318 1321 1324 1375 1389 1403 1335 1376 1361 1333 1271 1253 1238 1224 1192 1171 1164 1151 1139 1127 1115 1091 1074 1070 1111 1114 1069 1035 1001 996 990 998 987 966 966 993 1011 1018 1019 1040 1058 1071 1092 1097 1113 1131 1133 1148 1129 1216 1236 1246 1276 1293 1316
-9999 -9999 -9999 -9999 -9999 -9999 -9999 -9999 -9999 -9999 -9999 -9999 -9999 -9999 -9999 -9999 -9999 -9999 -9999 -9999 -9999 -9999 -9999 -9999 -9999 -9999 -9999 -9999 -9999 -9999 -9999 -9999 -9999 -9999 -9999 -9999 -9999 -9999 -9999 -9999 -9999 -9999 -9999 -9999 -9999 -9999 -9999 -9999 -9999 -9999 -9999 -9999 -9999 -9999 -9999 -9999 -9999 -9999 -9999 -9999 -9999 -9999 -9999 -9999 -9999 -9999 -9999 -9999 -9999 -9999 -9999 -9999 -9999 -9999 -9999 -9999 -9999 -9999 -9999 -9999 -9999 -9999 -9999 -9999 -9999 -9999 -9999 -9999 -9999 -9999 -9999 -9999 -9999 -9999 -9999 -9999 -9999 -9999 -9999 -9999 -9999 -9999 -9999 -9999 -9999 -9999 -9999 -9999 -9999 -9999 -9999 -9999 -9999 -9999 -9999 -9999 -9999 -9999 -9999 -9999 -9999 -9999 -9999 -9999 -9999 -9999 -9999 -9999 -9999 -9999 -9999 -9999 -9999 -9999 -9999 -9999 -9999 -9999 -9999 -9999 -9999 -9999 -9999 -9999 -9999 823 800 782 762 754 753 748 753 750 750 753 757 758 760 761 763 767 768 769 770 773 775 776 781 783 797 800 794 786 793 802 810 823 850 857 864 859 860 858 853 838 832 821 808 809 823 816 812 810 813 816 817 817 813 813 815 817 819 829 834 831 826 827 828 831 832 834 837 850 858 873 926 945 965 981 1009 1033 1048 1058 1043 1035 1076 1180 1218 1252 1376 1408 1455 1505 1671 1683 1685 1696 1711 1712 1709 1746 1772 1803 1857 1887 1931 1991 2074 2103 2114 2086 2132 2102 2079 2051 2102 2152 2254 2259 2277 2302 2331 2342 2364 2403 2414 2426 2438 2379 2290 2246 2286 2313 2284 2296 2395 2492 2432 2322 2252 2235 2227 2211 2252 2279 2202 2182 2176 2173 2180 2164 2194 2231 2258 2275 2276 2324 2391 2461 2434 2378 2356 2354 2355 2364 2369 2369 2372 2384 2381 2395 2413 2433 2472 2487 2504 2515 2488 2474 2460 2433 2423 2419 2351 2224 2173 2150 2140 2127 2123 2127 2158 2186 2088 2071 2075 2005 1960 1966 1966 1975 2010 2024 2025 2035 2092 2135 2173 2137 2020 1939 1876 1811 1751 1723 1678 1671 1686 1723 1815 1868 1919 1803 1707 1616 1536 1391 1352 1348 1323 1312 1307 1280 1256 1120 1041 948 908 872 846 829 827 847 897 938 970 1005 1077 1116 1178 1223 1231 1243 1249 1285 1308 1331 1352 1372 1368 1373 1394 1394 1388 1383 1390 1396 1422 1405 1408 1408 1456 1459 1459 1477 1527 1564 1596 1613 1612 1645 1683 1702 1703 1723 1824 1896 1935 1960 2002 2016 2019 1939 1903 1878 1894 1812 1793 1801 1755 1720 1687 1656 1592 1597 1624 1709 1764 1824 1873 1953 1976 2023 2138 2203 2259 2225 2144 2113 2061 1994 1979 1972 1988 1961 1961 1973 2016 2004 2005 2002 1859 1829 1821 1853 1824 1801 1746 1645 1585 1525 1440 1412 1383 1360 1369 1376 1387 1424 1474 1468 1483 1527 1496 1459 1381 1364 1296 1269 1233 1212 1214 1205 1199 1174 1152 1136 1105 1093 1134 1143 1134 1107 1087 1094 1092 1056 1006 977 959 994 1003 1001 997 1012 1027 1035 1057 1059 1069 1080 1090 1080 1094 1149 1163 1164 1193 1254 1289
-9999 -9999 -9999 -9999 -9999 -9999 -9999 -9999 -9999 -9999 -9999 -9999 -9999 -9999 -9999 -9999 -9999 -9999 -9999 -9999 -9999 -9999 -9999 -9999 -9999 -9999 -9999 -9999 -9999 -9999 -9999 -9999 -9999 -9999 -9999 -9999 -9999 -9999 -9999 -9999 -9999 -9999 -9999 -9999 -9999 -9999 -9999 -9999 -9999 -9999 -9999 -9999 -9999 -9999 -9999 -9999 -9999 -9999 -9999 -9999 -9999 -9999 -9999 -9999 -9999 -9999 -9999 -9999 -9999 -9999 -9999 -9999 -9999 -9999 -9999 -9999 -9999 -9999 -9999 -9999 -9999 -9999 -9999 -9999 -9999 -9999 -9999 -9999 -9999 -9999 -9999 -9999 -9999 -9999 -9999 -9999 -9999 -9999 -9999 -9999 -9999 -9999 -9999 -9999 -9999 -9999 -9999 -9999 -9999 -9999 -9999 -9999 -9999 -9999 -9999 -9999 -9999 -9999 -9999 -9999 -9999 -9999 -9999 -9999 -9999 -9999 -9999 -9999 -9999 -9999 -9999 -9999 -9999 -9999 -9999 -9999 -9999 -9999 -9999 -9999 -9999 -9999 -9999 -9999 819 807 776 760 745 747 751 757 763 777 789 793 772 775 776 776 777 782 784 780 783 787 792 797 800 795 795 785 792 797 803 799 788 789 795 809 815 815 813 815 814 806 801 803 812 821 827 827 817 815 815 820 816 816 811 822 827 842 833 846 858 847 830 829 829 833 835 834 834 839 839 842 879 926 942 957 985 1004 1015 1024 1015 1049 1095 1183 1230 1282 1402 1436 1459 1499 1591 1582 1566 1630 1653 1643 1653 1681 1700 1738 1797 1834 1892 1960 2044 2065 2050 2016 2012 2022 2050 2068 2156 2225 2291 2291 2305 2326 2332 2336 2355 2400 2411 2424 2433 2334 2262 2209 2186 2189 2198 2212 2343 2381 2370 2255 2208 2190 2188 2167 2190 2236 2162 2142 2136 2140 2114 2101 2112 2133 2155 2184 2206 2260 2314 2424 2489 2453 2403 2388 2385 2386 2385 2380 2381 2388 2386 2405 2422 2448 2480 2492 2510 2535 2596 2523 2510 2485 2482 2466 2394 2257 2216 2193 2170 2166 2174 2184 2202 2228 2221 2169 2159 2134 2085 2058 2027 2046 2103 2100 2085 2071 2109 2156 2210 2142 2009 1942 1888 1835 1825 1825 1778 1768 1779 1803 1833 1884 1935 1877 1780 1679 1591 1433 1408 1417 1390 1378 1371 1354 1294 1233 1144 989 950 912 886 834 824 830 866 899 925 962 1028 1072 1117 1191 1209 1211 1198 1219 1237 1249 1281 1289 1296 1358 1366 1358 1353 1354 1364 1359 1372 1372 1365 1385 1427 1428 1438 1451 1476 1497 1516 1546 1562 1589 1654 1650 1676 1702 1814 1849 1888 1918 1944 1959 1966 1912 1870 1846 1794 1762 1747 1724 1692 1670 1664 1603 1582 1592 1624 1714 1763 1812 1893 1928 1962 2009 2123 2193 2252 2217 2155 2094 2052 2019 2015 2000 2003 1992 2001 2014 2083 2060 2054 1935 1904 1889 1885 1869 1831 1789 1728 1651 1553 1494 1423 1408 1401 1407 1421 1431 1451 1485 1529 1538 1581 1580 1558 1506 1419 1404 1380 1311 1299 1297 1304 1311 1248 1220 1184 1180 1131 1103 1151 1173 1168 1139 1142 1143 1139 1082 1029 978 961 970 969 966 977 982 992 1017 1022 1028 1030 1050 1052 1049 1114 1129 1131 1125 1184 1218 1242
-9999 -9999 -9999 -9999 -9999 -9999 -9999 -9999 -9999 -9999 -9999 -9999 -9999 -9999 -9999 -9999 -9999 -9999 -9999 -9999 -9999 -9999 -9999 -9999 -9999 -9999 -9999 -9999 -9999 -9999 -9999 -9999 -9999 -9999 -9999 -9999 -9999 -9999 -9999 -9999 -9999 -9999 -9999 -9999 -9999 -9999 -9999 -9999 -9999 -9999 -9999 -9999 -9999 -9999 -9999 -9999 -9999 -9999 -9999 -9999 -9999 -9999 -9999 -9999 -9999 -9999 -9999 -9999 -9999 -9999 -9999 -9999 -9999 -9999 -9999 -9999 -9999 -9999 -9999 -9999 -9999 -9999 -9999 -9999 -9999 -9999 -9999 -9999 -9999 -9999 -9999 -9999 -9999 -9999 -9999 -9999 -9999 -9999 -9999 -9999 -9999 -9999 -9999 -9999 -9999 -9999 -9999 -9999 -9999 -9999 -9999 -9999 -9999 -9999 -9999 -9999 -9999 -9999 -9999 -9999 -9999 -9999 -9999 -9999 -9999 -9999 -9999 -9999 -9999 -9999 -9999 -9999 -9999 -9999 -9999 -9999 -9999 -9999 -9999 -9999 -9999 -9999 -9999 797 799 783 751 744 748 767 769 772 782 795 807 813 828 822 828 836 839 841 810 798 805 805 812 820 815 815 805 802 802 807 816 813 806 792 790 792 793 796 800 798 798 798 805 813 828 838 842 833 825 820 829 856 857 851 898 932 956 963 884 882 882 858 854 841 837 848 845 838 837 839 840 844 857 868 873 894 908 928 941 988 1010 1057 1124 1160 1224 1288 1378 1409 1428 1484 1530 1522 1505 1523 1538 1555 1557 1563 1601 1688 1749 1795 1864 1966 1998 1999 1977 1945 1939 1967 1993 2025 2126 2182 2212 2264 2312 2321 2286 2301 2347 2400 2406 2415 2338 2287 2228 2173 2150 2151 2161 2197 2263 2306 2243 2161 2116 2103 2099 2086 2152 2202 2113 2105 2094 2092 2059 2047 2051 2096 2130 2152 2194 2227 2265 2313 2483 2482 2457 2418 2396 2395 2391 2389 2392 2394 2405 2419 2433 2451 2478 2487 2508 2562 2606 2669 2633 2617 2605 2569 2426 2294 2258 2237 2198 2200 2211 2243 2244 2274 2297 2216 2205 2194 2121 2102 2107 2118 2143 2149 2161 2208 2155 2208 2258 2146 2008 1955 1882 1866 1861 1862 1830 1824 1831 1864 1889 1928 1983 1864 1793 1698 1544 1475 1469 1484 1477 1456 1438 1397 1328 1264 1174 1014 968 935 882 866 844 821 824 834 853 949 980 1015 1047 1132 1176 1192 1179 1177 1197 1202 1238 1244 1247 1263 1254 1265 1268 1296 1299 1319 1332 1338 1330 1350 1388 1391 1412 1437 1455 1471 1489 1501 1528 1549 1544 1594 1630 1656 1709 1738 1832 1861 1896 1904 1916 1883 1841 1806 1757 1730 1720 1701 1657 1647 1617 1562 1567 1596 1638 1745 1764 1801 1878 1931 1983 2030 2158 2216 2268 2191 2125 2083 2062 2036 2036 2059 2082 2081 2072 2075 2143 2123 2056 1929 1915 1918 1920 1872 1816 1775 1670 1584 1528 1479 1425 1426 1439 1487 1517 1546 1574 1533 1557 1600 1630 1641 1598 1537 1464 1444 1410 1354 1340 1350 1362 1335 1299 1254 1225 1214 1155 1121 1180 1204 1197 1185 1190 1196 1193 1118 1059 1014 950 954 960 962 950 951 950 953 953 956 990 1017 1022 1034 1085 1106 1097 1100 1167 1195 1207
-9999 -9999 -9999 -9999 -9999 -9999 -9999 -9999 -9999 -9999 -9999 -9999 -9999 -9999 -9999 -9999 -9999 -9999 -9999 -9999 -9999 -9999 -9999 -9999 -9999 -9999 -9999 -9999 -9999 -9999 -9999 -9999 -9999 -9999 -9999 -9999 -9999 -9999 -9999 -9999 -9999 -9999 -9999 -9999 -9999 -9999 -9999 -9999 -9999 -9999 -9999 -9999 -9999 -9999 -9999 -9999 -9999 -9999 -9999 -9999 -9999 -9999 -9999 -9999 -9999 -9999 -9999 -9999 -9999 -9999 -9999 -9999 -9999 -9999 -9999 -9999 -9999 -9999 -9999 -9999 -9999 -9999 -9999 -9999 -9999 -9999 -9999 -9999 -9999 -9999 -9999 -9999 -9999 -9999 -9999 -9999 -9999 -9999 -9999 -9999 -9999 -9999 -9999 -9999 -9999 -9999 -9999 -9999 -9999 -9999 -9999 -9999 -9999 -9999 -9999 -9999 -9999 -9999 -9999 -9999 -9999 -9999 -9999 -9999 -9999 -9999 -9999 -9999 -9999 -9999 -9999 -9999 -9999 -9999 -9999 -9999 -9999 -9999 -9999 -9999 -9999 -9999 -9999 768 758 750 746 748 758 783 791 795 807 816 831 840 863 864 866 873 879 871 875 860 871 871 875 873 836 835 822 824 818 819 834 831 821 805 804 803 800 810 812 810 823 822 825 832 842 854 858 844 842 844 864 900 892 876 991 1029 1055 1066 1060 1023 981 958 939 917 869 869 859 846 838 839 840 843 851 858 864 887 894 905 921 975 1016 1052 1141 1187 1231 1283 1350 1373 1382 1422 1443 1441 1452 1486 1505 1524 1516 1524 1555 1585 1656 1729 1791 1850 1835 1895 1904 1884 1883 1898 1933 1982 2062 2111 2142 2205 2249 2251 2225 2252 2304 2300 2305 2340 2235 2207 2170 2129 2117 2116 2113 2161 2216 2279 2219 2117 2075 2067 2052 2038 2068 2132 2033 2044 2035 2011 2025 2011 2018 2067 2097 2122 2178 2207 2238 2286 2440 2476 2464 2422 2395 2392 2394 2410 2415 2410 2425 2430 2443 2450 2479 2489 2501 2560 2601 2658 2605 2627 2621 2617 2482 2412 2352 2327 2347 2414 2404 2287 2292 2313 2348 2263 2249 2236 2216 2198 2177 2165 2169 2177 2189 2250 2272 2302 2337 2195 2081 2015 1923 1910 1895 1896 1886 1894 1893 1898 1911 1938 1990 1902 1814 1721 1618 1606 1641 1642 1605 1587 1511 1447 1365 1301 1204 1049 994 952 897 881 863 843 816 815 823 868 892 917 942 1016 1056 1143 1150 1139 1156 1159 1198 1202 1197 1201 1208 1222 1232 1255 1259 1248 1260 1260 1271 1293 1311 1353 1380 1419 1428 1447 1463 1468 1481 1486 1539 1582 1606 1623 1653 1674 1706 1753 1776 1788 1815 1809 1810 1774 1727 1689 1686 1670 1629 1609 1592 1546 1568 1606 1653 1773 1826 1866 1946 1987 2032 2091 2182 2239 2284 2166 2118 2088 2069 2057 2060 2082 2111 2117 2118 2114 2133 2073 2025 1934 1918 1921 1930 1865 1814 1762 1645 1573 1512 1466 1434 1452 1482 1533 1581 1626 1641 1639 1663 1713 1716 1672 1656 1567 1504 1470 1431 1399 1403 1410 1408 1337 1296 1256 1227 1195 1145 1138 1220 1259 1274 1295 1300 1304 1231 1171 1111 1067 977 946 948 953 945 942 940 940 942 943 950 969 979 986 1015 1023 1031 1086 1144 1161 1176
-9999 -9999 -9999 -9999 -9999 -9999 -9999 -9999 -9999 -9999 -9999 -9999 -9999 -9999 -9999 -9999 -9999 -9999 -9999 -9999 -9999 -9999 -9999 -9999 -9999 -9999 -9999 -9999 -9999 -9999 -9999 -9999 -9999 -9999 -9999 -9999 -9999 -9999 -9999 -9999 -9999 -9999 -9999 -9999 -9999 -9999 -9999 -9999 -9999 -9999 -9999 -9999 -9999 -9999 -9999 -9999 -9999 -9999 -9999 -9999 -9999 -9999 -9999 -9999 -9999 -9999 -9999 -9999 -9999 -9999 -9999 -9999 -9999 -9999 -9999 -9999 -9999 -9999 -9999 -9999 -9999 -9999 -9999 -9999 -9999 -9999 -9999 -9999 -9999 -9999 -9999 -9999 -9999 -9999 -9999 -9999 -9999 -9999 -9999 -9999 -9999 -9999 -9999 -9999 -9999 -9999 -9999 -9999 -9999 -9999 -9999 -9999 -9999 -9999 -9999 -9999 -9999 -9999 -9999 -9999 -9999 -9999 -9999 -9999 -9999 -9999 -9999 -9999 -9999 -9999 -9999 -9999 -9999 -9999 -9999 -9999 -9999 -9999 -9999 -9999 -9999 777 760 755 751 740 752 757 767 817 836 852 863 851 873 891 907 910 914 917 928 918 916 907 908 909 915 906 907 903 904 904 895 885 857 850 840 827 825 830 830 841 849 849 854 854 860 860 872 888 897 907 922 915 911 960 937 940 1072 1109 1132 1142 1128 1079 1056 1039 1018 987 963 929 906 895 876 871 845 845 850 855 862 886 893 902 914 972 1011 1049 1135 1171 1197 1214 1277 1305 1310 1325 1325 1388 1411 1447 1464 1478 1471 1491 1523 1548 1612 1691 1737 1786 1772 1770 1775 1799 1795 1809 1850 1934 1991 2025 2077 2131 2155 2197 2163 2199 2252 2249 2259 2290 2184 2165 2101 2066 2027 2027 2020 2057 2173 2235 2208 2074 2044 2024 2009 1995 2012 2070 1989 1993 1982 1973 1959 1959 1970 2016 2052 2093 2167 2198 2229 2271 2382 2444 2460 2440 2423 2418 2416 2418 2415 2415 2433 2445 2457 2465 2492 2500 2501 2540 2562 2565 2546 2574 2567 2570 2517 2487 2441 2399 2466 2505 2532 2438 2414 2463 2502 2478 2448 2278 2269 2276 2281 2300 2204 2206 2217 2268 2297 2323 2350 2234 2140 2046 2004 1987 1983 1969 1976 2010 1965 1933 1940 1958 1999 1913 1824 1745 1696 1713 1725 1718 1681 1657 1641 1542 1436 1357 1273 1097 1012 964 919 906 886 868 831 815 808 832 853 876 899 955 991 1008 1054 1097 1101 1106 1125 1165 1151 1155 1178 1189 1198 1221 1229 1216 1231 1229 1245 1264 1279 1299 1328 1367 1370 1379 1385 1438 1447 1442 1525 1553 1567 1577 1602 1625 1660 1704 1718 1733 1768 1766 1742 1705 1662 1642 1611 1604 1601 1572 1557 1541 1577 1619 1669 1791 1842 1892 1965 2000 2049 2105 2211 2260 2314 2184 2148 2125 2088 2079 2083 2109 2134 2136 2136 2154 2117 2075 2038 1951 1942 1948 1945 1887 1853 1793 1624 1561 1512 1458 1452 1485 1535 1607 1641 1683 1704 1688 1710 1762 1734 1690 1666 1623 1570 1551 1538 1519 1520 1459 1439 1338 1286 1257 1222 1176 1142 1169 1252 1294 1323 1356 1354 1362 1357 1267 1231 1187 1069 1019 943 942 939 933 931 927 931 932 938 954 959 963 986 994 1008 1059 1080 1093 1109
-9999 -9999 -9999 -9999 -9999 -9999 -9999 -9999 -9999 -9999 -9999 -9999 -9999 -9999 -9999 -9999 -9999 -9999 -9999 -9999 -9999 -9999 -9999 -9999 -9999 -9999 -9999 -9999 -9999 -9999 -9999 -9999 -9999 -9999 -9999 -9999 -9999 -9999 -9999 -9999 -9999 -9999 -9999 -9999 -9999 -9999 -9999 -9999 -9999 -9999 -9999 -9999 -9999 -9999 -9999 -9999 -9999 -9999 -9999 -9999 -9999 -9999 -9999 -9999 -9999 -9999 -9999 -9999 -9999 -9999 -9999 -9999 -9999 -9999 -9999 -9999 -9999 -9999 -9999 -9999 -9999 -9999 -9999 -9999 -9999 -9999 -9999 -9999 -9999 -9999 -9999 -9999 -9999 -9999 -9999 -9999 -9999 -9999 -9999 -9999 -9999 -9999 -9999 -9999 -9999 -9999 -9999 -9999 -9999 -9999 -9999 -9999 -9999 -9999 -9999 -9999 -9999 -9999 -9999 -9999 -9999 -9999 -9999 -9999 -9999 -9999 -9999 -9999 -9999 -9999 -9999 -9999 -9999 -9999 -9999 -9999 -9999 -9999 -9999 -9999 -9999 761 750 742 739 751 761 769 785 832 853 874 906 928 948 969 1045 1056 1052 975 986 963 968 951 952 957 945 945 957 948 956 950 945 927 910 921 922 916 908 913 881 879 881 888 888 891 894 899 904 918 919 948 979 999 1087 1119 1101 1123 1218 1229 1183 1168 1176 1134 1121 1143 1096 1080 988 967 946 936 906 894 885 864 861 866 869 867 878 896 940 960 992 1031 1104 1138 1154 1195 1236 1260 1263 1284 1289 1315 1359 1377 1386 1392 1414 1461 1488 1521 1571 1640 1674 1729 1723 1729 1757 1769 1768 1782 1803 1806 1831 1890 1922 1979 1985 2114 2101 2147 2235 2202 2208 2237 2147 2117 2076 1979 1975 1980 1973 1999 2058 2150 2092 2022 1983 1960 1969 1953 1958 1957 1941 1941 1927 1940 1929 1937 1989 2029 2066 2100 2171 2201 2232 2314 2353 2406 2449 2454 2454 2453 2441 2427 2420 2420 2440 2457 2470 2490 2493 2490 2480 2475 2480 2489 2502 2496 2492 2511 2500 2498 2493 2486 2504 2529 2567 2569 2543 2584 2590 2543 2505 2477 2447 2455 2438 2415 2397 2252 2256 2300 2323 2352 2352 2262 2163 2074 2020 2008 1994 2003 2013 2027 2050 2098 2076 2069 2087 2057 1881 1834 1771 1813 1819 1802 1767 1713 1659 1554 1452 1354 1196 1109 1060 1029 971 943 921 866 837 822 812 810 823 841 880 907 940 949 1027 1070 1084 1081 1075 1059 1054 1097 1101 1099 1091 1178 1200 1187 1204 1207 1221 1243 1245 1277 1300 1330 1335 1342 1353 1366 1374 1411 1437 1457 1465 1548 1565 1595 1628 1654 1661 1693 1761 1729 1696 1661 1614 1604 1574 1547 1534 1529 1510 1548 1592 1645 1748 1800 1838 1878 1977 2022 2084 2183 2233 2276 2333 2208 2172 2151 2134 2130 2136 2154 2202 2192 2158 2159 2118 2084 2048 1988 1979 1976 1913 1892 1876 1813 1630 1571 1531 1501 1517 1563 1626 1712 1735 1718 1751 1737 1763 1795 1737 1705 1681 1630 1612 1608 1600 1586 1575 1530 1414 1356 1310 1267 1193 1163 1164 1239 1278 1324 1356 1405 1405 1421 1347 1308 1277 1237 1124 1069 1022 953 953 950 948 931 918 920 932 938 941 944 966 974 983 1022 1036 1051 1069
-9999 -9999 -9999 -9999 -9999 -9999 -9999 -9999 -9999 -9999 -9999 -9999 -9999 -9999 -9999 -9999 -9999 -9999 -9999 -9999 -9999 -9999 -9999 -9999 -9999 -9999 -9999 -9999 -9999 -9999 -9999 -9999 -9999 -9999 -9999 -9999 -9999 -9999 -9999 -9999 -9999 -9999 -9999 -9999 -9999 -9999 -9999 -9999 -9999 -9999 -9999 -9999 -9999 -9999 -9999 -9999 -9999 -9999 -9999 -9999 -9999 -9999 -9999 -9999 -9999 -9999 -9999 -9999 -9999 -9999 -9999 -9999 -9999 -9999 -9999 -9999 -9999 -9999 -9999 -9999 -9999 -9999 -9999 -9999 -9999 -9999 -9999 -9999 -9999 -9999 -9999 -9999 -9999 -9999 -9999 -9999 -9999 -9999 -9999 -9999 -9999 -9999 -9999 -9999 -9999 -9999 -9999 -9999 -9999 -9999 -9999 -9999 -9999 -9999 -9999 -9999 -9999 -9999 -9999 -9999 -9999 -9999 -9999 -9999 -9999 -9999 -9999 -9999 -9999 -9999 -9999 -9999 -9999 -9999 -9999 -9999 -9999 -9999 -9999 -9999 742 737 732 738 748 763 774 782 799 852 878 902 943 974 996 1019 1120 1141 1131 1146 1147 1104 1138 1089 1073 1013 989 984 1002 991 1008 995 999 970 955 983 985 975 973 977 1003 996 986 997 992 995 951 958 954 958 951 991 1024 1070 1146 1175 1166 1190 1261 1290 1334 1309 1283 1237 1217 1226 1163 1120 1052 1023 1005 989 940 923 916 892 886 887 893 881 877 877 890 907 933 966 1067 1103 1120 1167 1183 1201 1211 1248 1264 1286 1339 1353 1351 1353 1394 1407 1438 1461 1481 1526 1569 1662 1672 1697 1732 1743 1749 1757 1776 1790 1809 1845 1867 1893 1916 1972 2017 2065 2123 2129 2133 2185 2099 2067 2035 1939 1933 1937 1928 1959 2030 2118 2062 1979 1942 1940 1903 1882 1865 1848 1841 1835 1878 1897 1898 1920 1994 2048 2081 2118 2184 2210 2240 2318 2357 2399 2445 2472 2471 2470 2454 2446 2438 2446 2449 2464 2476 2492 2482 2475 2462 2457 2463 2473 2477 2474 2476 2473 2484 2479 2480 2494 2509 2525 2563 2665 2650 2652 2556 2532 2470 2434 2386 2370 2349 2351 2339 2338 2367 2370 2382 2439 2357 2260 2159 2089 2031 2018 2007 2002 2020 2040 2059 2113 2145 2161 2179 2142 2081 2095 2026 2012 1958 1791 1766 1685 1621 1539 1449 1340 1178 1127 1108 1062 1007 978 947 885 866 848 838 817 804 800 852 875 896 906 971 1013 1037 1025 1020 1007 1016 1055 1059 1060 1062 1092 1099 1093 1132 1156 1163 1202 1204 1244 1269 1290 1305 1299 1307 1320 1354 1379 1401 1417 1433 1465 1486 1504 1520 1560 1588 1657 1734 1701 1664 1624 1569 1548 1526 1507 1508 1497 1494 1564 1593 1646 1742 1800 1838 1862 1946 1980 2039 2154 2201 2297 2346 2242 2198 2183 2165 2160 2167 2181 2223 2221 2217 2191 2147 2113 2082 2064 2022 1987 1925 1900 1880 1797 1643 1592 1564 1554 1562 1599 1656 1745 1769 1788 1823 1855 1851 1849 1766 1731 1713 1665 1661 1667 1661 1649 1602 1548 1412 1359 1310 1263 1187 1171 1206 1272 1314 1366 1411 1486 1464 1464 1392 1353 1322 1270 1162 1097 1043 972 973 969 968 964 957 941 908 904 914 918 951 956 960 983 1003 1019 1030
-9999 -9999 -9999 -9999 -9999 -9999 -9999 -9999 -9999 -9999 -9999 -9999 -9999 -9999 -9999 -9999 -9999 -9999 -9999 -9999 -9999 -9999 -9999 -9999 -9999 -9999 -9999 -9999 -9999 -9999 -9999 -9999 -9999 -9999 -9999 -9999 -9999 -9999 -9999 -9999 -9999 -9999 -9999 -9999 -9999 -9999 -9999 -9999 -9999 -9999 -9999 -9999 -9999 -9999 -9999 -9999 -9999 -9999 -9999 -9999 -9999 -9999 -9999 -9999 -9999 -9999 -9999 -9999 -9999 -9999 -9999 -9999 -9999 -9999 -9999 -9999 -9999 -9999 -9999 -9999 -9999 -9999 -9999 -9999 -9999 -9999 -9999 -9999 -9999 -9999 -9999 -9999 -9999 -9999 -9999 -9999 -9999 -9999 -9999 -9999 -9999 -9999 -9999 -9999 -9999 -9999 -9999 -9999 -9999 -9999 -9999 -9999 -9999 -9999 -9999 -9999 -9999 -9999 -9999 -9999 -9999 -9999 -9999 -9999 -9999 -9999 -9999 -9999 -9999 -9999 -9999 -9999 -9999 -9999 -9999 -9999 -9999 -9999 -9999 741 735 733 731 743 758 789 808 824 845 924 964 942 1007 1051 1072 1092 1194 1222 1234 1240 1225 1201 1222 1218 1190 1188 1128 1086 1104 1106 1126 1060 1063 1025 1008 1043 1050 1054 1062 1049 1067 1054 1048 1059 1056 1053 1068 1096 1079 1053 1029 1062 1056 1112 1224 1225 1233 1241 1309 1371 1421 1375 1350 1304 1252 1251 1230 1239 1203 1199 1185 1142 1008 974 958 931 924 921 920 906 898 895 885 891 905 923 978 1007 1033 1091 1125 1151 1169 1223 1237 1261 1305 1316 1310 1326 1366 1388 1418 1443 1459 1486 1520 1583 1598 1628 1690 1712 1720 1742 1757 1773 1785 1809 1820 1836 1861 1935 1980 2011 2077 2099 2098 2098 2009 1963 1959 1870 1816 1893 1881 1915 1986 2053 2013 1940 1898 1894 1870 1846 1833 1797 1773 1776 1787 1817 1858 1914 2027 2061 2115 2137 2196 2217 2248 2319 2361 2404 2461 2495 2494 2489 2471 2464 2468 2467 2478 2483 2482 2456 2470 2457 2440 2435 2439 2448 2455 2457 2463 2465 2479 2474 2479 2496 2509 2528 2558 2653 2636 2585 2486 2489 2437 2402 2350 2318 2303 2295 2293 2294 2316 2431 2432 2417 2354 2253 2169 2115 2057 2038 2029 2001 2011 2031 2050 2082 2112 2143 2222 2225 2165 2185 2076 2001 1935 1748 1670 1612 1559 1463 1398 1310 1203 1182 1145 1105 1052 1018 983 916 887 866 856 831 819 806 806 817 832 842 881 902 977 953 960 953 970 1015 1014 1017 1039 1054 1045 1059 1102 1113 1121 1118 1143 1164 1188 1222 1227 1257 1258 1296 1332 1346 1373 1384 1399 1431 1448 1462 1468 1522 1570 1616 1659 1645 1606 1568 1510 1503 1483 1465 1463 1468 1504 1588 1619 1667 1770 1811 1842 1867 1956 2010 2050 2110 2158 2212 2280 2335 2249 2233 2208 2222 2230 2225 2249 2251 2248 2210 2166 2133 2107 2079 2049 2023 1926 1886 1839 1761 1713 1641 1621 1620 1614 1631 1680 1769 1803 1811 1843 1865 1880 1842 1791 1774 1761 1755 1775 1766 1766 1683 1629 1562 1407 1352 1303 1254 1189 1181 1219 1296 1344 1399 1446 1518 1543 1545 1482 1426 1373 1305 1178 1111 1066 1001 1002 999 998 998 995 982 934 916 905 901 911 914 918 937 947 957 995
-9999 -9999 -9999 -9999 -9999 -9999 -9999 -9999 -9999 -9999 -9999 -9999 -9999 -9999 -9999 -9999 -9999 -9999 -9999 -9999 -9999 -9999 -9999 -9999 -9999 -9999 -9999 -9999 -9999 -9999 -9999 -9999 -9999 -9999 -9999 -9999 -9999 -9999 -9999 -9999 -9999 -9999 -9999 -9999 -9999 -9999 -9999 -9999 -9999 -9999 -9999 -9999 -9999 -9999 -9999 -9999 -9999 -9999 -9999 -9999 -9999 -9999 -9999 -9999 -9999 -9999 -9999 -9999 -9999 -9999 -9999 -9999 -9999 -9999 -9999 -9999 -9999 -9999 -9999 -9999 -9999 -9999 -9999 -9999 -9999 -9999 -9999 -9999 -9999 -9999 -9999 -9999 -9999 -9999 -9999 -9999 -9999 -9999 -9999 -9999 -9999 -9999 -9999 -9999 -9999 -9999 -9999 -9999 -9999 -9999 -9999 -9999 -9999 -9999 -9999 -9999 -9999 -9999 -9999 -9999 -9999 -9999 -9999 -9999 -9999 -9999 -9999 -9999 -9999 -9999 -9999 -9999 -9999 -9999 -9999 -9999 -9999 -9999 741 733 728 729 736 754 775 816 836 854 874 963 1008 1057 1134 1182 1235 1287 1360 1322 1317 1317 1281 1267 1291 1327 1333 1303 1162 1140 1188 1187 1239 1271 1246 1111 1131 1211 1237 1138 1142 1105 1118 1106 1108 1118 1112 1118 1142 1177 1163 1100 1066 1079 1124 1165 1288 1336 1363 1385 1378 1450 1477 1432 1379 1320 1303 1330 1315 1324 1260 1257 1234 1211 1199 1176 1145 1069 1039 1018 952 933 930 923 901 897 902 910 946 972 997 1063 1099 1119 1132 1133 1173 1188 1223 1231 1256 1297 1341 1380 1411 1428 1429 1443 1481 1547 1564 1587 1664 1696 1708 1712 1715 1725 1729 1742 1747 1793 1814 1891 1941 1958 2028 2046 2046 2045 1950 1905 1900 1830 1775 1769 1763 1820 1865 1889 1899 1904 1860 1849 1839 1813 1796 1758 1744 1747 1761 1822 1856 1901 1992 2039 2092 2145 2228 2251 2284 2363 2376 2425 2477 2530 2523 2511 2489 2487 2488 2487 2479 2475 2468 2430 2420 2418 2412 2384 2383 2399 2429 2439 2449 2459 2476 2475 2485 2501 2513 2534 2570 2643 2616 2556 2452 2422 2384 2346 2284 2254 2230 2254 2249 2252 2265 2385 2398 2362 2329 2267 2183 2138 2085 2074 2050 2030 2029 2030 2033 2050 2082 2119 2202 2269 2258 2222 2062 1978 1909 1705 1642 1591 1541 1443 1393 1355 1316 1291 1266 1249 1159 1108 1026 943 916 889 863 847 833 807 797 796 802 822 831 853 871 864 864 862 908 923 975 976 1007 1016 1004 1046 1065 1071 1075 1097 1115 1130 1159 1177 1179 1163 1217 1249 1269 1283 1285 1343 1368 1394 1409 1421 1452 1489 1520 1571 1606 1604 1575 1508 1486 1461 1427 1442 1480 1524 1611 1652 1659 1703 1789 1839 1877 1910 1958 2023 2071 2107 2157 2204 2333 2360 2357 2350 2375 2365 2346 2389 2297 2286 2277 2224 2182 2150 2106 2080 2047 2001 1908 1848 1802 1732 1723 1723 1723 1711 1692 1676 1717 1771 1822 1831 1845 1881 1885 1812 1810 1808 1795 1801 1803 1793 1733 1677 1632 1554 1409 1345 1295 1214 1190 1190 1235 1326 1372 1422 1503 1545 1575 1584 1516 1446 1374 1232 1165 1116 1079 1059 1077 1079 1038 1039 1036 1018 981 960 937 901 892 893 898 911 929 939 956
