ncols 54
nrows 58
xllcorner -1620000
yllcorner 438000
cellsize 100
NODATA_value -9999
1080 1099 1116 1161 1197 1216 1251 1250 1263 1311 1393 1437 1481 1588 1616 1643 1672 1753 1777 1824 1900 1926 1986 2056 2044 2038 2015 2038 1972 1946 1942 1921 1870 1878 1908 1930 1956 1989 2096 2106 1998 1820 1768 1694 1647 1622 1636 1674 1749 1774 1753 1755 1815 1829
1064 1071 1099 1135 1169 1187 1212 1227 1273 1322 1409 1453 1482 1518 1552 1572 1611 1729 1770 1807 1884 1918 1968 2029 2099 2109 2074 2090 2020 1988 1989 1979 1960 1968 1984 2004 2020 2034 2072 2108 2024 1851 1793 1722 1695 1662 1643 1668 1752 1782 1761 1751 1800 1821
1037 1036 1075 1109 1127 1138 1209 1253 1291 1334 1418 1442 1445 1471 1507 1542 1574 1677 1721 1758 1838 1894 1947 2003 2086 2125 2145 2141 2082 2043 2034 2028 1999 2003 2037 2056 2070 2083 2107 2036 1954 1816 1765 1755 1756 1727 1680 1663 1725 1763 1782 1778 1801 1812
1010 1008 1035 1050 1107 1159 1238 1268 1321 1380 1409 1402 1392 1444 1482 1522 1613 1657 1701 1736 1826 1887 1944 2031 2070 2100 2127 2202 2191 2086 2091 2065 2042 2043 2109 2122 2141 2139 2098 1984 1898 1795 1763 1755 1807 1795 1775 1759 1700 1710 1783 1823 1823 1828
982 970 1036 1068 1108 1130 1192 1228 1272 1317 1312 1311 1362 1451 1477 1517 1626 1673 1710 1749 1824 1885 1932 2015 2044 2073 2119 2183 2195 2221 2232 2177 2145 2136 2233 2220 2222 2188 2099 1978 1883 1795 1768 1764 1805 1807 1796 1812 1751 1732 1742 1802 1841 1873
934 952 1039 1062 1087 1094 1145 1181 1224 1271 1274 1300 1360 1441 1473 1511 1616 1668 1714 1756 1842 1896 1927 1983 2014 2047 2083 2145 2165 2191 2257 2269 2246 2202 2308 2353 2350 2172 2094 1979 1899 1796 1777 1788 1825 1827 1828 1852 1808 1780 1756 1760 1792 1829
890 926 973 982 1002 1055 1118 1143 1171 1219 1232 1294 1385 1418 1455 1474 1589 1635 1679 1761 1806 1847 1862 1918 1943 1967 2035 2099 2116 2137 2218 2261 2296 2278 2355 2388 2357 2187 2114 2014 1941 1814 1782 1796 1870 1895 1917 1887 1885 1830 1783 1744 1752 1792
867 893 922 945 970 1038 1060 1073 1076 1160 1219 1264 1366 1404 1426 1439 1559 1607 1648 1741 1782 1811 1823 1882 1903 1928 1974 1995 2027 2081 2149 2177 2198 2289 2331 2364 2362 2210 2137 2063 1897 1839 1797 1790 1843 1878 1917 1961 1974 1925 1862 1787 1792 1811
830 852 882 913 934 1008 1027 1029 1041 1156 1198 1240 1308 1323 1344 1386 1477 1534 1615 1711 1741 1760 1775 1845 1869 1901 1928 1966 2008 2051 2098 2125 2142 2211 2248 2289 2332 2181 2088 2056 1919 1856 1813 1806 1813 1846 1891 1955 1979 1956 1908 1854 1861 1860
865 858 850 886 916 978 986 994 1035 1131 1171 1206 1272 1282 1320 1363 1469 1526 1578 1644 1653 1669 1703 1763 1830 1858 1903 1938 1974 2005 2052 2081 2103 2174 2215 2254 2294 2184 2097 2031 1924 1881 1852 1836 1822 1825 1862 1934 1969 1979 1957 1913 1929 1933
921 919 912 891 880 915 936 971 1021 1098 1121 1170 1218 1251 1295 1406 1460 1520 1568 1606 1615 1648 1700 1728 1762 1797 1856 1886 1912 1965 2020 2045 2074 2148 2179 2217 2285 2196 2121 2040 1935 1892 1859 1829 1825 1841 1859 1907 1936 1963 1983 1955 1968 1979
972 984 970 944 915 906 939 963 990 1021 1054 1099 1148 1177 1227 1360 1446 1494 1522 1570 1594 1621 1674 1703 1744 1781 1834 1858 1885 1931 1955 1986 2016 2077 2115 2161 2278 2226 2133 2057 1952 1911 1872 1851 1871 1880 1884 1938 1963 1957 1982 1993 2024 2051
1034 1028 1011 993 972 910 930 948 969 996 1029 1062 1121 1158 1228 1333 1391 1407 1437 1518 1556 1596 1657 1695 1735 1767 1814 1836 1861 1902 1928 1956 1986 2053 2093 2141 2228 2272 2229 2138 1998 1959 1902 1893 1922 1919 1921 1968 2007 1993 1972 1998 2031 2065
1049 1086 1092 1084 1040 993 959 935 949 963 992 1057 1081 1138 1175 1303 1334 1355 1469 1517 1562 1601 1670 1700 1728 1760 1771 1791 1830 1885 1907 1931 1958 2031 2063 2111 2202 2243 2265 2183 2034 2024 2008 1972 1994 2021 2032 2052 2070 2016 1966 1985 2013 2038
1062 1100 1122 1133 1096 1061 992 952 965 964 964 1000 1040 1103 1160 1254 1290 1358 1485 1530 1555 1582 1650 1681 1701 1720 1742 1776 1803 1843 1864 1883 1940 1971 2038 2082 2174 2216 2245 2115 2070 2087 2070 1998 2015 2052 2069 2081 2095 2044 1968 1975 1978 1988
1069 1114 1137 1159 1154 1120 1031 1015 1028 1009 995 998 1029 1065 1115 1252 1304 1351 1450 1510 1545 1570 1631 1654 1662 1675 1711 1760 1800 1840 1858 1881 1947 1972 2001 2057 2145 2172 2215 2153 2101 2135 2117 2013 2040 2075 2104 2108 2109 2053 1996 1997 2013 1998
1103 1153 1182 1206 1241 1170 1106 1093 1094 1066 1046 1010 1027 1061 1112 1237 1283 1324 1413 1454 1482 1501 1546 1560 1593 1676 1718 1762 1801 1859 1871 1892 1951 1980 2010 2045 2109 2142 2183 2176 2167 2215 2170 2034 2047 2090 2141 2134 2115 2067 2037 2047 2048 2036
1162 1185 1220 1240 1270 1277 1275 1244 1197 1161 1134 1023 1027 1052 1170 1215 1255 1305 1395 1425 1446 1485 1522 1568 1619 1685 1705 1745 1799 1828 1856 1886 1937 1961 1989 2043 2070 2114 2152 2183 2200 2210 2089 2047 2059 2090 2130 2137 2125 2165 2198 2191 2094 2068
1196 1219 1258 1285 1304 1321 1328 1289 1247 1211 1164 1089 1054 1052 1120 1154 1218 1295 1372 1385 1410 1495 1541 1586 1623 1677 1694 1722 1775 1806 1834 1848 1898 1927 1948 1994 2024 2066 2118 2197 2247 2205 2106 2074 2064 2077 2121 2134 2140 2188 2246 2288 2214 2138
1225 1252 1271 1303 1357 1373 1382 1329 1292 1253 1199 1127 1085 1070 1104 1139 1196 1246 1349 1389 1432 1494 1515 1578 1599 1641 1657 1686 1746 1777 1807 1844 1898 1923 1943 1982 2009 2044 2083 2176 2224 2252 2168 2140 2085 2090 2131 2147 2166 2223 2289 2327 2254 2151
1233 1263 1286 1349 1396 1433 1448 1412 1324 1291 1198 1157 1125 1096 1114 1148 1204 1318 1360 1391 1424 1467 1478 1500 1545 1568 1605 1631 1690 1760 1793 1868 1888 1914 1937 1979 2005 2028 2063 2142 2181 2228 2214 2184 2155 2145 2174 2185 2222 2288 2327 2353 2271 2143
1243 1270 1288 1360 1410 1455 1486 1447 1415 1384 1282 1241 1201 1169 1130 1165 1220 1304 1339 1374 1405 1433 1452 1480 1516 1542 1578 1611 1677 1724 1771 1872 1904 1918 1935 1977 1999 2022 2075 2112 2139 2164 2260 2245 2190 2170 2194 2216 2254 2288 2326 2344 2218 2190
1246 1274 1293 1382 1434 1486 1525 1498 1471 1418 1326 1284 1244 1214 1155 1154 1178 1238 1284 1323 1374 1419 1443 1467 1502 1534 1570 1605 1696 1740 1788 1866 1900 1919 1935 1951 1955 1964 2022 2043 2072 2129 2208 2251 2233 2184 2196 2219 2255 2290 2310 2341 2245 2223
1288 1325 1355 1439 1490 1556 1575 1543 1497 1449 1371 1322 1288 1263 1191 1164 1170 1232 1270 1313 1333 1367 1397 1431 1487 1537 1573 1620 1705 1749 1799 1868 1886 1895 1908 1917 1935 1964 2003 2026 2055 2074 2144 2184 2220 2251 2231 2216 2247 2291 2326 2356 2269 2243
1313 1343 1371 1445 1502 1568 1661 1633 1598 1556 1441 1409 1336 1261 1225 1200 1180 1233 1263 1294 1325 1356 1386 1414 1482 1517 1548 1608 1657 1698 1728 1768 1776 1842 1877 1896 1930 1961 2000 2019 2048 2091 2133 2176 2209 2295 2286 2262 2293 2301 2295 2306 2292 2260
1311 1339 1358 1431 1487 1551 1668 1676 1632 1578 1482 1461 1424 1347 1304 1271 1252 1216 1255 1276 1310 1338 1371 1404 1475 1499 1523 1584 1632 1661 1684 1723 1750 1786 1864 1895 1926 1952 2005 2018 2042 2083 2121 2163 2201 2268 2282 2282 2250 2240 2242 2258 2324 2328
1301 1332 1366 1431 1485 1552 1656 1688 1650 1607 1541 1524 1477 1395 1355 1317 1295 1230 1225 1242 1279 1317 1345 1369 1451 1483 1511 1577 1612 1632 1651 1712 1746 1782 1856 1894 1929 1956 2000 2018 2026 2057 2086 2104 2119 2197 2212 2207 2195 2196 2205 2229 2330 2376
1318 1351 1436 1488 1528 1570 1653 1692 1740 1630 1610 1582 1517 1451 1419 1374 1313 1272 1234 1241 1275 1296 1319 1371 1407 1454 1500 1582 1612 1646 1681 1717 1746 1779 1858 1892 1923 1944 1990 2007 2009 2037 2064 2077 2064 2090 2107 2123 2160 2167 2173 2209 2316 2359
1338 1375 1451 1504 1553 1601 1680 1719 1757 1736 1695 1637 1602 1551 1510 1427 1345 1305 1258 1244 1271 1288 1312 1388 1436 1477 1516 1583 1618 1652 1726 1758 1778 1797 1830 1844 1899 1941 1963 1978 1988 2021 2042 2036 2021 2054 2082 2096 2129 2153 2168 2255 2282 2243
1371 1393 1473 1519 1564 1615 1715 1748 1783 1761 1701 1670 1651 1578 1524 1478 1378 1342 1312 1283 1262 1274 1308 1410 1445 1480 1520 1594 1631 1664 1733 1761 1775 1781 1796 1810 1834 1890 1896 1890 1896 1930 1988 1989 2012 2038 2071 2090 2110 2151 2173 2263 2245 2193
1400 1444 1531 1579 1626 1668 1760 1778 1814 1791 1746 1705 1669 1582 1527 1482 1406 1354 1328 1302 1262 1268 1288 1391 1437 1480 1531 1607 1644 1675 1719 1737 1742 1753 1767 1787 1810 1860 1840 1830 1856 1913 1933 1941 2015 2053 2090 2124 2120 2165 2214 2257 2199 2142
1429 1479 1582 1624 1665 1746 1792 1828 1863 1815 1764 1707 1597 1568 1518 1474 1410 1376 1342 1293 1268 1264 1283 1371 1421 1465 1549 1582 1613 1640 1660 1670 1688 1706 1745 1771 1796 1803 1782 1787 1859 1893 1919 1933 2019 2046 2092 2159 2194 2225 2268 2196 2100 2027
1450 1497 1606 1648 1692 1785 1831 1865 1887 1815 1758 1698 1559 1526 1501 1499 1452 1423 1387 1310 1281 1264 1275 1345 1397 1444 1518 1549 1582 1609 1646 1654 1660 1692 1704 1720 1719 1732 1752 1772 1831 1879 1916 1952 2032 2059 2091 2152 2195 2240 2281 2149 2050 1981
1476 1511 1579 1621 1676 1784 1844 1883 1896 1821 1755 1680 1541 1518 1519 1527 1474 1442 1414 1357 1322 1292 1270 1292 1333 1417 1496 1530 1559 1588 1624 1630 1630 1667 1674 1674 1671 1720 1746 1776 1864 1937 1989 2052 2138 2150 2110 2167 2214 2258 2258 2120 2016 1966
1528 1599 1631 1650 1682 1774 1831 1873 1884 1821 1749 1677 1550 1526 1536 1505 1481 1460 1452 1385 1346 1315 1272 1282 1308 1356 1457 1494 1515 1544 1558 1594 1600 1619 1630 1632 1664 1705 1745 1789 1915 1967 2023 2064 2111 2137 2162 2224 2256 2272 2197 2086 2023 1968
1562 1647 1684 1699 1723 1795 1845 1893 1902 1829 1751 1681 1624 1615 1598 1538 1543 1509 1494 1416 1369 1337 1278 1279 1298 1333 1415 1449 1468 1508 1517 1521 1521 1529 1546 1570 1664 1707 1752 1797 1897 1942 1990 2047 2067 2093 2124 2187 2222 2266 2189 2137 2074 2017
1611 1708 1735 1762 1778 1837 1871 1920 1911 1848 1769 1696 1670 1652 1615 1570 1581 1553 1499 1431 1401 1367 1297 1279 1294 1321 1392 1422 1434 1467 1482 1491 1501 1522 1547 1581 1684 1740 1787 1822 1875 1895 1920 1954 2030 2056 2092 2173 2208 2253 2255 2192 2129 2062
1592 1686 1730 1780 1830 1925 1972 2003 1924 1866 1803 1723 1690 1668 1637 1620 1595 1552 1497 1433 1418 1386 1316 1294 1296 1314 1363 1387 1410 1455 1479 1497 1514 1553 1577 1619 1752 1785 1800 1817 1851 1872 1890 1911 1955 2003 2048 2137 2170 2206 2260 2214 2169 2120
1614 1688 1748 1795 1889 1943 1994 2038 1966 1918 1859 1740 1748 1733 1686 1662 1612 1556 1456 1440 1425 1407 1352 1323 1302 1345 1367 1395 1423 1492 1531 1559 1603 1644 1670 1654 1777 1848 1842 1839 1851 1859 1867 1901 1949 1989 2078 2102 2133 2178 2170 2128 2082 2020
1646 1721 1753 1796 1890 1945 1997 2050 1985 1928 1868 1768 1775 1759 1764 1671 1614 1573 1529 1501 1438 1429 1395 1344 1315 1356 1381 1409 1444 1527 1575 1602 1626 1650 1677 1694 1774 1835 1904 1996 1964 1903 1904 1933 1970 1991 2066 2108 2147 2188 2118 2070 2035 1972
1660 1747 1799 1854 1943 1997 2017 2076 1993 1931 1858 1777 1799 1791 1764 1649 1621 1604 1576 1551 1515 1502 1440 1394 1361 1379 1391 1426 1464 1570 1619 1658 1654 1654 1677 1702 1772 1819 1891 2013 2026 2032 2028 2054 2082 2098 2150 2157 2191 2172 2054 2017 1992 1939
1724 1768 1818 1868 1980 2027 2081 2043 1973 1904 1840 1783 1809 1798 1705 1672 1651 1634 1624 1586 1547 1484 1454 1436 1404 1403 1440 1470 1576 1630 1676 1724 1702 1685 1678 1732 1770 1803 1856 1966 2020 2059 2091 2100 2122 2155 2202 2241 2190 2097 1945 1913 1901 1902
1735 1787 1830 1880 1994 2053 2104 2039 1973 1901 1841 1786 1815 1788 1757 1753 1740 1733 1666 1618 1574 1503 1491 1479 1444 1433 1481 1514 1608 1663 1711 1754 1817 1774 1734 1729 1760 1782 1813 1935 1987 2032 2110 2144 2174 2203 2266 2256 2155 1967 1910 1888 1871 1828
1714 1772 1833 1896 1999 2052 2106 2036 1959 1879 1821 1794 1828 1815 1803 1804 1807 1803 1710 1658 1625 1570 1554 1519 1477 1454 1492 1529 1610 1670 1724 1770 1866 1830 1781 1752 1764 1777 1802 1892 1919 1949 2063 2109 2153 2216 2270 2243 2144 1948 1898 1878 1855 1803
1726 1776 1838 1902 2033 2096 2112 1969 1893 1847 1798 1807 1851 1857 1863 1868 1867 1834 1717 1662 1640 1603 1582 1541 1506 1499 1496 1522 1573 1604 1694 1747 1859 1877 1835 1790 1790 1797 1803 1878 1909 1939 2046 2082 2124 2155 2188 2192 2121 1938 1906 1880 1843 1786
1738 1793 1849 1979 2047 2126 2100 1938 1892 1843 1807 1841 1881 1958 1994 1938 1910 1780 1715 1673 1652 1620 1604 1563 1519 1520 1515 1523 1560 1592 1635 1755 1821 1883 1942 1885 1826 1826 1834 1864 1899 1943 2031 2052 2092 2125 2148 2167 2101 1968 1927 1900 1830 1803
1767 1792 1857 1996 2063 2132 2072 1935 1906 1865 1830 1858 1899 1985 2046 1995 1922 1786 1736 1689 1667 1633 1622 1596 1564 1567 1551 1537 1561 1594 1638 1748 1820 1882 1956 1942 1921 1904 2006 1991 1971 1978 2013 2021 2060 2107 2125 2162 2113 1992 1961 1939 1861 1815
1793 1821 1856 2006 2080 2127 2084 1953 1926 1919 1876 1898 1934 2018 2037 1992 1915 1785 1741 1710 1694 1666 1666 1655 1677 1674 1651 1621 1587 1620 1653 1744 1821 1891 1971 2032 2006 2002 2064 2049 2005 1989 2004 2013 2029 2097 2125 2159 2138 2033 2008 1997 1901 1844
1822 1843 1869 2018 2098 2141 2116 2060 2020 2025 1976 2002 2044 2046 2006 1964 1909 1779 1742 1728 1714 1687 1691 1695 1730 1719 1703 1640 1653 1695 1707 1765 1835 1918 2038 2111 2107 2101 2068 2082 2044 2006 2003 2002 2018 2095 2125 2144 2127 2119 2089 2016 1896 1834
1865 1873 1897 2001 2058 2101 2170 2102 2061 2056 2011 2048 2095 2003 1951 1905 1848 1770 1746 1734 1715 1701 1724 1734 1778 1777 1760 1691 1686 1696 1708 1773 1844 1916 2048 2123 2199 2240 2121 2123 2108 2052 2032 2016 2021 2098 2126 2104 2075 2074 2064 2004 1888 1826
1992 1953 1965 2017 2043 2088 2190 2153 2111 2089 2037 2087 2071 1980 1922 1868 1821 1757 1735 1714 1700 1716 1759 1794 1867 1838 1806 1744 1724 1701 1705 1784 1842 1908 2026 2099 2178 2240 2138 2125 2167 2146 2127 2120 2113 2109 2100 2054 2025 2031 2026 2011 1902 1832
2043 2011 2005 2057 2088 2145 2279 2263 2200 2139 2072 2101 2035 1931 1882 1835 1796 1740 1719 1707 1715 1732 1765 1812 1901 1912 1888 1823 1786 1758 1762 1793 1849 1897 2014 2077 2154 2222 2156 2142 2169 2198 2179 2184 2166 2081 2025 1971 1940 1930 1919 1915 1924 1846
2108 2068 2087 2102 2140 2179 2305 2293 2225 2132 2145 2069 1968 1833 1802 1774 1750 1723 1711 1717 1757 1773 1795 1869 1924 1950 1931 1853 1819 1816 1825 1834 1852 1895 1999 2065 2140 2232 2190 2177 2188 2256 2238 2231 2151 2081 2004 1953 1899 1889 1874 1862 1891 1859
2174 2205 2141 2171 2207 2226 2326 2285 2231 2152 2122 2038 1938 1804 1779 1757 1721 1718 1737 1788 1863 1861 1861 1897 1961 1982 1948 1870 1846 1857 1883 1883 1891 1909 1992 2058 2133 2203 2192 2202 2205 2185 2183 2190 2119 2086 1998 1938 1879 1869 1851 1822 1852 1858
2193 2220 2269 2309 2360 2360 2312 2246 2192 2093 2080 2008 1918 1796 1768 1747 1717 1730 1762 1838 1908 1904 1913 1948 1980 2013 1990 1925 1902 1898 1953 1947 1944 1950 2007 2076 2150 2144 2134 2158 2153 2135 2115 2094 2004 2009 2028 1985 1896 1876 1836 1785 1803 1818
2165 2203 2281 2315 2346 2396 2339 2252 2160 2064 2026 1975 1840 1811 1765 1745 1725 1749 1796 1962 1973 1965 1976 2007 2039 2051 1990 1943 1940 1997 2061 2072 2053 2035 2072 2096 2155 2088 2080 2110 2072 2073 2046 2021 1952 1953 1986 1977 1943 1886 1820 1725 1708 1734
2121 2160 2252 2273 2314 2373 2327 2243 2171 2067 2027 1994 1874 1839 1811 1782 1776 1815 1878 2029 2023 2038 2050 2081 2104 2078 2002 1959 1979 2042 2076 2119 2114 2077 2103 2126 2090 1992 1980 2010 1975 2004 1989 1947 1897 1903 1933 1986 1947 1886 1818 1701 1672 1675
2062 2101 2163 2211 2236 2330 2320 2243 2161 2059 2036 2018 1917 1872 1845 1814 1812 1842 1881 2022 2080 2144 2193 2213 2177 2115 2005 1978 2015 2071 2110 2167 2169 2140 2154 2077 2043 1949 1927 1960 1912 1892 1901 1841 1786 1801 1832 1932 1929 1876 1814 1700 1652 1620