ncols	582
nrows	30
xllcorner	-1605000
yllcorner	449800
cellsize	100
NODATA_value	-9999
2097	2188	2231	2237	2221	2129	2085	2062	2084	2054	2021	1987	1916	1897	1879	1873	1876	1875	1871	1910	1936	2002	2012	2014	2011	2014	2062	2073	2082	2118	2246	2322	2382	2417	2446	2476	2517	2665	2752	2827	2793	2754	2698	2632	2607	2588	2569	2518	2484	2423	2369	2325	2319	2308	2284	2242	2174	2122	2021	1980	1939	1860	1823	1793	1768	1818	1888	1894	1882	1895	1935	1968	2047	2069	2083	2081	2066	2096	2122	2164	2186	2191	2163	2034	1983	1933	1831	1807	1862	1873	1876	1870	1828	1704	1677	1639	1600	1554	1538	1520	1504	1507	1518	1547	1655	1713	1756	1809	1830	1862	1894	1860	1915	1978	2039	2152	2121	2142	2141	2154	2189	2242	2483	2564	2502	2429	2427	2409	2360	2280	2280	2273	2180	2132	2089	2064	2099	2057	2028	1987	1974	1968	1931	1886	1897	1908	1949	1945	1905	1848	1716	1649	1592	1548	1500	1449	1432	1393	1348	1296	1232	1122	1074	1020	1015	1038	1050	1061	1111	1147	1187	1286	1344	1384	1372	1280	1247	1232	1198	1181	1141	1054	916	868	828	766	756	749	737	736	752	788	884	928	965	975	1044	1059	1094	1141	1156	1191	1203	1220	1229	1244	1311	1333	1336	1343	1415	1451	1480	1503	1572	1628	1677	1797	1845	1889	1945	2036	2077	2127	2250	2277	2270	2217	2089	2029	2016	1968	1956	1896	1842	1868	1861	1837	1822	1845	1802	1763	1809	1832	1848	1866	1892	1914	1948	1983	1993	2024	2048	2070	2095	2139	2231	2260	2282	2306	2353	2352	2325	2273	2251	2241	2237	2275	2308	2394	2348	2312	2286	2290	2363	2366	2339	2252	2205	2159	2115	2021	1987	1968	1928	1905	1883	1859	1807	1802	1776	1746	1730	1707	1707	1708	1683	1649	1573	1616	1656	1686	1751	1785	1823	1909	1945	1991	2022	2053	2061	2071	2088	2124	2123	2137	2168	2174	2181	2166	2092	2052	2019	1978	1992	2013	2027	2043	2058	2068	2116	2147	2151	2139	2122	2090	2049	2054	2057	2047	2038	2058	2080	2108	2173	2201	2230	2273	2355	2388	2469	2561	2587	2612	2624	2647	2671	2715	2823	2815	2816	2809	2755	2727	2716	2701	2622	2583	2562	2532	2527	2517	2506	2482	2470	2457	2428	2420	2417	2420	2427	2425	2424	2422	2420	2419	2420	2434	2461	2485	2559	2579	2515	2477	-9999	-9999	-9999	-9999	-9999	-9999	-9999	-9999	-9999	-9999	-9999	-9999	-9999	-9999	-9999	-9999	-9999	-9999	-9999	-9999	-9999	-9999	-9999	-9999	-9999	-9999	-9999	-9999	-9999	-9999	-9999	-9999	-9999	-9999	-9999	-9999	-9999	-9999	-9999	-9999	-9999	-9999	-9999	-9999	-9999	-9999	-9999	-9999	-9999	-9999	-9999	-9999	-9999	-9999	-9999	-9999	-9999	-9999	-9999	-9999	-9999	-9999	-9999	-9999	-9999	-9999	-9999	-9999	-9999	-9999	-9999	-9999	-9999	-9999	-9999	-9999	-9999	-9999	-9999	-9999	-9999	-9999	-9999	-9999	-9999	-9999	-9999	-9999	-9999	-9999	-9999	-9999	-9999	-9999	-9999	-9999	-9999	-9999	-9999	-9999	-9999	-9999	-9999	-9999	-9999	-9999	-9999	-9999	-9999	-9999	-9999	-9999	-9999	-9999	-9999	-9999	-9999	-9999	-9999	-9999	-9999	-9999	-9999	-9999	-9999	-9999	-9999	-9999	-9999	-9999	-9999	-9999	-9999	-9999	-9999	-9999	-9999	-9999	-9999	-9999	-9999	-9999	-9999	-9999	-9999	-9999	-9999	-9999	-9999	-9999	-9999	-9999	-9999	-9999	-9999	-9999	-9999	-9999	-9999	-9999	-9999	-9999	-9999	-9999	-9999	-9999	-9999	-9999	-9999	-9999	-9999	-9999	-9999	-9999	-9999	-9999	-9999	-9999	-9999	-9999	-9999	-9999	-9999	-9999	-9999	-9999	-9999	-9999
2113	2168	2166	2162	2137	2093	2054	2025	2038	2015	1987	1949	1894	1876	1857	1866	1868	1870	1870	1884	1916	1956	2056	2085	2089	2074	2099	2099	2103	2126	2225	2286	2346	2423	2447	2481	2524	2656	2738	2802	2778	2736	2698	2678	2632	2617	2647	2592	2496	2411	2349	2316	2306	2300	2282	2241	2170	2108	2019	1976	1932	1846	1803	1768	1743	1771	1797	1816	1836	1859	1887	1923	2021	2040	2050	2035	2048	2079	2104	2145	2168	2173	2160	2046	1994	1940	1821	1774	1757	1748	1728	1737	1712	1626	1583	1597	1566	1528	1516	1498	1505	1520	1535	1573	1704	1764	1808	1876	1888	1914	1953	1959	1973	2012	2142	2214	2267	2189	2161	2162	2194	2331	2457	2546	2480	2376	2369	2361	2325	2223	2219	2230	2211	2195	2162	2144	2226	2240	2217	2160	2067	2064	2028	1972	1981	1978	1936	1917	1866	1805	1679	1623	1551	1507	1472	1422	1377	1294	1264	1203	1096	1054	1043	1009	1056	1066	1089	1134	1161	1198	1242	1328	1383	1415	1401	1303	1269	1246	1227	1215	1181	1103	974	923	879	782	760	750	740	733	738	759	830	871	905	928	995	1016	1050	1113	1130	1139	1166	1173	1187	1211	1262	1301	1303	1330	1399	1433	1465	1515	1555	1608	1658	1776	1824	1866	1979	2019	2061	2113	2189	2170	2132	2135	2040	1986	1954	1917	1901	1883	1814	1815	1810	1799	1795	1806	1788	1758	1802	1821	1833	1843	1859	1874	1893	1917	1950	1988	2052	2085	2100	2141	2217	2243	2269	2315	2343	2357	2331	2270	2244	2231	2207	2228	2259	2295	2278	2258	2251	2263	2280	2309	2269	2193	2160	2114	2071	1983	1953	1932	1887	1864	1844	1818	1743	1731	1712	1635	1609	1598	1604	1577	1549	1520	1542	1619	1665	1700	1764	1802	1848	1929	1974	2019	2050	2088	2107	2121	2137	2133	2137	2157	2155	2123	2076	2044	1995	2000	1969	1934	1947	1964	1975	2004	2017	2026	2083	2084	2082	2070	2051	2026	1996	1980	1986	1996	2006	2045	2076	2103	2167	2193	2234	2288	2401	2438	2481	2520	2561	2593	2611	2636	2653	2687	2783	2849	2863	2859	2818	2778	2760	2693	2633	2592	2570	2540	2540	2532	2510	2496	2483	2467	2432	2420	2416	2422	2428	2428	2427	2427	2427	2432	2437	2448	2467	2487	2557	2609	2587	2527	-9999	-9999	-9999	-9999	-9999	-9999	-9999	-9999	-9999	-9999	-9999	-9999	-9999	-9999	-9999	-9999	-9999	-9999	-9999	-9999	-9999	-9999	-9999	-9999	-9999	-9999	-9999	-9999	-9999	-9999	-9999	-9999	-9999	-9999	-9999	-9999	-9999	-9999	-9999	-9999	-9999	-9999	-9999	-9999	-9999	-9999	-9999	-9999	-9999	-9999	-9999	-9999	-9999	-9999	-9999	-9999	-9999	-9999	-9999	-9999	-9999	-9999	-9999	-9999	-9999	-9999	-9999	-9999	-9999	-9999	-9999	-9999	-9999	-9999	-9999	-9999	-9999	-9999	-9999	-9999	-9999	-9999	-9999	-9999	-9999	-9999	-9999	-9999	-9999	-9999	-9999	-9999	-9999	-9999	-9999	-9999	-9999	-9999	-9999	-9999	-9999	-9999	-9999	-9999	-9999	-9999	-9999	-9999	-9999	-9999	-9999	-9999	-9999	-9999	-9999	-9999	-9999	-9999	-9999	-9999	-9999	-9999	-9999	-9999	-9999	-9999	-9999	-9999	-9999	-9999	-9999	-9999	-9999	-9999	-9999	-9999	-9999	-9999	-9999	-9999	-9999	-9999	-9999	-9999	-9999	-9999	-9999	-9999	-9999	-9999	-9999	-9999	-9999	-9999	-9999	-9999	-9999	-9999	-9999	-9999	-9999	-9999	-9999	-9999	-9999	-9999	-9999	-9999	-9999	-9999	-9999	-9999	-9999	-9999	-9999	-9999	-9999	-9999	-9999	-9999	-9999	-9999	-9999	-9999	-9999	-9999	-9999	-9999
2121	2146	2134	2123	2107	2019	1962	1939	1954	1938	1906	1919	1873	1861	1847	1861	1876	1880	1882	1895	1914	1965	2097	2117	2119	2115	2131	2149	2163	2199	2250	2274	2303	2408	2452	2480	2565	2626	2708	2780	2764	2721	2695	2681	2645	2649	2677	2527	2455	2415	2383	2330	2309	2285	2254	2231	2162	2105	2020	1975	1927	1836	1795	1751	1722	1727	1752	1766	1797	1819	1848	1878	1940	1965	1985	1983	2017	2039	2053	2119	2142	2152	2105	2049	2000	1941	1821	1772	1740	1685	1679	1679	1656	1584	1550	1524	1507	1482	1478	1498	1563	1543	1565	1606	1726	1798	1859	1974	1968	1981	2023	2023	2024	2051	2139	2219	2291	2285	2226	2202	2208	2292	2348	2419	2457	2339	2316	2311	2239	2183	2162	2173	2199	2195	2195	2198	2179	2237	2267	2247	2216	2193	2169	2075	2012	1948	1860	1847	1807	1758	1656	1598	1530	1450	1423	1379	1337	1242	1211	1156	1056	1027	1025	1072	1144	1173	1168	1268	1289	1259	1299	1389	1431	1447	1379	1334	1298	1263	1235	1224	1198	1078	1014	961	912	829	799	771	749	737	732	739	789	823	856	885	960	997	1020	1084	1102	1114	1145	1151	1185	1202	1243	1268	1307	1333	1377	1402	1430	1491	1547	1602	1647	1752	1799	1849	1958	2006	2045	2094	2152	2122	2060	2034	1990	1950	1895	1829	1781	1766	1698	1688	1704	1759	1750	1763	1758	1757	1799	1816	1825	1829	1848	1858	1863	1878	1899	1926	2003	2050	2103	2151	2187	2207	2236	2308	2333	2344	2324	2264	2237	2223	2189	2188	2214	2236	2256	2248	2239	2253	2232	2199	2161	2095	2064	2033	1971	1940	1929	1905	1859	1835	1812	1785	1707	1669	1657	1601	1566	1545	1538	1520	1501	1470	1539	1616	1667	1709	1793	1827	1864	1954	2003	2042	2071	2110	2132	2141	2117	2102	2094	2102	2079	2047	2019	1991	1947	1902	1860	1840	1839	1850	1881	1956	1978	1995	2036	2017	2016	1999	1989	1961	1940	1936	1950	1974	1980	2030	2061	2091	2170	2204	2219	2253	2297	2331	2413	2486	2538	2573	2596	2626	2643	2670	2744	2805	2855	2868	2846	2810	2789	2709	2667	2643	2606	2575	2572	2567	2530	2514	2497	2479	2438	2420	2419	2427	2430	2430	2431	2433	2437	2444	2453	2455	2470	2512	2572	2615	2581	2486	-9999	-9999	-9999	-9999	-9999	-9999	-9999	-9999	-9999	-9999	-9999	-9999	-9999	-9999	-9999	-9999	-9999	-9999	-9999	-9999	-9999	-9999	-9999	-9999	-9999	-9999	-9999	-9999	-9999	-9999	-9999	-9999	-9999	-9999	-9999	-9999	-9999	-9999	-9999	-9999	-9999	-9999	-9999	-9999	-9999	-9999	-9999	-9999	-9999	-9999	-9999	-9999	-9999	-9999	-9999	-9999	-9999	-9999	-9999	-9999	-9999	-9999	-9999	-9999	-9999	-9999	-9999	-9999	-9999	-9999	-9999	-9999	-9999	-9999	-9999	-9999	-9999	-9999	-9999	-9999	-9999	-9999	-9999	-9999	-9999	-9999	-9999	-9999	-9999	-9999	-9999	-9999	-9999	-9999	-9999	-9999	-9999	-9999	-9999	-9999	-9999	-9999	-9999	-9999	-9999	-9999	-9999	-9999	-9999	-9999	-9999	-9999	-9999	-9999	-9999	-9999	-9999	-9999	-9999	-9999	-9999	-9999	-9999	-9999	-9999	-9999	-9999	-9999	-9999	-9999	-9999	-9999	-9999	-9999	-9999	-9999	-9999	-9999	-9999	-9999	-9999	-9999	-9999	-9999	-9999	-9999	-9999	-9999	-9999	-9999	-9999	-9999	-9999	-9999	-9999	-9999	-9999	-9999	-9999	-9999	-9999	-9999	-9999	-9999	-9999	-9999	-9999	-9999	-9999	-9999	-9999	-9999	-9999	-9999	-9999	-9999	-9999	-9999	-9999	-9999	-9999	-9999	-9999	-9999	-9999	-9999	-9999	-9999
2117	2109	2090	2077	2034	1993	1945	1897	1903	1897	1874	1848	1775	1790	1811	1844	1864	1900	1911	1928	1938	1985	2130	2145	2151	2153	2186	2170	2182	2203	2243	2280	2314	2390	2434	2466	2534	2593	2679	2751	2770	2723	2694	2674	2659	2660	2604	2491	2453	2422	2359	2330	2308	2283	2240	2224	2179	2114	2029	1986	1937	1820	1782	1744	1709	1683	1709	1724	1758	1780	1807	1837	1899	1933	1955	1958	1994	2021	2037	2072	2095	2118	2110	2054	1995	1939	1823	1784	1754	1661	1639	1630	1605	1543	1514	1501	1474	1468	1481	1507	1577	1601	1631	1728	1779	1846	1940	2066	2073	2055	2083	2086	2079	2096	2169	2254	2329	2317	2257	2234	2227	2252	2270	2358	2425	2290	2235	2206	2202	2151	2116	2103	2131	2140	2151	2160	2117	2116	2172	2238	2243	2207	2130	2069	1991	1932	1835	1752	1690	1659	1612	1558	1503	1403	1371	1328	1285	1192	1151	1120	1033	1038	1074	1138	1174	1222	1212	1320	1355	1376	1423	1474	1508	1521	1459	1377	1333	1288	1243	1233	1216	1135	1072	1004	947	862	830	796	751	741	733	731	743	763	781	836	893	951	998	1061	1074	1085	1106	1141	1172	1181	1240	1271	1300	1324	1370	1394	1422	1483	1524	1571	1630	1740	1781	1827	1939	1990	2032	2078	2104	2077	2000	1986	1937	1884	1852	1776	1745	1698	1652	1639	1652	1657	1656	1683	1746	1791	1801	1810	1815	1827	1839	1846	1855	1867	1884	1904	1976	2021	2076	2148	2178	2198	2222	2273	2289	2286	2293	2257	2230	2216	2183	2168	2173	2187	2209	2217	2217	2200	2184	2164	2138	2077	2045	2012	1945	1917	1893	1873	1838	1818	1784	1673	1659	1617	1597	1559	1529	1507	1485	1476	1458	1443	1534	1596	1647	1753	1795	1835	1882	2006	2050	2076	2086	2104	2097	2118	2070	2043	2038	2036	2004	1989	1965	1933	1893	1853	1816	1777	1774	1790	1837	1877	1903	1941	1932	1898	1879	1854	1915	1900	1889	1894	1920	1942	1984	2010	2047	2090	2154	2166	2201	2286	2294	2306	2362	2471	2518	2552	2578	2627	2644	2664	2706	2731	2773	2813	2864	2841	2809	2731	2688	2673	2641	2595	2592	2586	2559	2543	2527	2513	2459	2434	2424	2428	2432	2434	2436	2442	2449	2452	2462	2462	2470	2519	2597	2636	2563	-9999	-9999	-9999	-9999	-9999	-9999	-9999	-9999	-9999	-9999	-9999	-9999	-9999	-9999	-9999	-9999	-9999	-9999	-9999	-9999	-9999	-9999	-9999	-9999	-9999	-9999	-9999	-9999	-9999	-9999	-9999	-9999	-9999	-9999	-9999	-9999	-9999	-9999	-9999	-9999	-9999	-9999	-9999	-9999	-9999	-9999	-9999	-9999	-9999	-9999	-9999	-9999	-9999	-9999	-9999	-9999	-9999	-9999	-9999	-9999	-9999	-9999	-9999	-9999	-9999	-9999	-9999	-9999	-9999	-9999	-9999	-9999	-9999	-9999	-9999	-9999	-9999	-9999	-9999	-9999	-9999	-9999	-9999	-9999	-9999	-9999	-9999	-9999	-9999	-9999	-9999	-9999	-9999	-9999	-9999	-9999	-9999	-9999	-9999	-9999	-9999	-9999	-9999	-9999	-9999	-9999	-9999	-9999	-9999	-9999	-9999	-9999	-9999	-9999	-9999	-9999	-9999	-9999	-9999	-9999	-9999	-9999	-9999	-9999	-9999	-9999	-9999	-9999	-9999	-9999	-9999	-9999	-9999	-9999	-9999	-9999	-9999	-9999	-9999	-9999	-9999	-9999	-9999	-9999	-9999	-9999	-9999	-9999	-9999	-9999	-9999	-9999	-9999	-9999	-9999	-9999	-9999	-9999	-9999	-9999	-9999	-9999	-9999	-9999	-9999	-9999	-9999	-9999	-9999	-9999	-9999	-9999	-9999	-9999	-9999	-9999	-9999	-9999	-9999	-9999	-9999	-9999	-9999	-9999	-9999	-9999	-9999	-9999	-9999
2048	2070	2041	2027	1978	1950	1921	1886	1824	1816	1810	1775	1756	1732	1738	1787	1815	1847	1961	2011	2015	2038	2182	2214	2193	2196	2215	2207	2180	2200	2222	2259	2310	2384	2427	2454	2521	2584	2669	2737	2766	2756	2716	2682	2655	2621	2565	2493	2462	2431	2375	2342	2314	2284	2231	2219	2173	2061	2021	1976	1922	1822	1784	1756	1690	1651	1629	1648	1671	1744	1768	1796	1867	1902	1920	1939	1972	1997	2016	2041	2067	2097	2114	2066	1996	1931	1838	1807	1772	1663	1604	1581	1562	1509	1487	1481	1462	1475	1496	1531	1609	1627	1646	1739	1789	1847	1930	2066	2199	2279	2229	2213	2244	2274	2215	2286	2361	2306	2278	2252	2212	2193	2199	2243	2363	2280	2214	2167	2146	2121	2060	2003	2017	2035	2058	2071	2025	2034	2063	2174	2193	2161	2110	2063	1991	1921	1826	1753	1650	1623	1585	1530	1480	1367	1313	1252	1145	1103	1066	1069	1053	1106	1164	1232	1229	1255	1260	1342	1394	1429	1459	1522	1551	1551	1483	1440	1394	1350	1267	1249	1234	1198	1124	1043	978	893	858	824	772	749	734	732	735	755	779	820	870	930	966	1010	1006	1019	1085	1117	1146	1166	1230	1261	1293	1345	1369	1393	1417	1477	1512	1550	1604	1731	1779	1819	1906	1952	1995	2031	1994	1953	1908	1943	1888	1828	1792	1719	1705	1653	1609	1587	1599	1606	1635	1680	1743	1788	1796	1808	1817	1829	1835	1843	1873	1880	1897	1916	1976	2012	2068	2171	2176	2197	2225	2272	2275	2273	2269	2249	2231	2217	2176	2162	2149	2158	2140	2125	2168	2141	2136	2143	2129	2071	2044	2014	1936	1906	1882	1871	1841	1823	1796	1693	1627	1573	1533	1494	1474	1455	1426	1440	1427	1439	1536	1596	1653	1747	1795	1842	1898	2026	2063	2076	2065	2059	2053	2031	1960	1927	1924	1892	1883	1929	1912	1879	1847	1808	1771	1731	1726	1737	1805	1836	1876	1908	1861	1835	1823	1793	1794	1780	1784	1838	1842	1866	1966	2003	2046	2075	2111	2156	2198	2281	2290	2302	2338	2462	2512	2543	2595	2621	2641	2660	2695	2699	2699	2735	2767	2845	2831	2754	2714	2695	2663	2616	2614	2608	2581	2564	2550	2538	2472	2447	2434	2431	2435	2441	2447	2455	2462	2462	2469	2469	2467	2502	2625	2649	-9999	-9999	-9999	-9999	-9999	-9999	-9999	-9999	-9999	-9999	-9999	-9999	-9999	-9999	-9999	-9999	-9999	-9999	-9999	-9999	-9999	-9999	-9999	-9999	-9999	-9999	-9999	-9999	-9999	-9999	-9999	-9999	-9999	-9999	-9999	-9999	-9999	-9999	-9999	-9999	-9999	-9999	-9999	-9999	-9999	-9999	-9999	-9999	-9999	-9999	-9999	-9999	-9999	-9999	-9999	-9999	-9999	-9999	-9999	-9999	-9999	-9999	-9999	-9999	-9999	-9999	-9999	-9999	-9999	-9999	-9999	-9999	-9999	-9999	-9999	-9999	-9999	-9999	-9999	-9999	-9999	-9999	-9999	-9999	-9999	-9999	-9999	-9999	-9999	-9999	-9999	-9999	-9999	-9999	-9999	-9999	-9999	-9999	-9999	-9999	-9999	-9999	-9999	-9999	-9999	-9999	-9999	-9999	-9999	-9999	-9999	-9999	-9999	-9999	-9999	-9999	-9999	-9999	-9999	-9999	-9999	-9999	-9999	-9999	-9999	-9999	-9999	-9999	-9999	-9999	-9999	-9999	-9999	-9999	-9999	-9999	-9999	-9999	-9999	-9999	-9999	-9999	-9999	-9999	-9999	-9999	-9999	-9999	-9999	-9999	-9999	-9999	-9999	-9999	-9999	-9999	-9999	-9999	-9999	-9999	-9999	-9999	-9999	-9999	-9999	-9999	-9999	-9999	-9999	-9999	-9999	-9999	-9999	-9999	-9999	-9999	-9999	-9999	-9999	-9999	-9999	-9999	-9999	-9999	-9999	-9999	-9999	-9999	-9999	-9999
2013	1996	1969	1935	1881	1852	1827	1818	1801	1755	1717	1717	1702	1696	1697	1721	1754	1797	1949	2030	2057	2069	2188	2234	2276	2291	2262	2243	2228	2198	2209	2239	2343	2383	2420	2449	2525	2579	2657	2717	2716	2726	2705	2681	2663	2627	2590	2526	2485	2452	2394	2361	2328	2285	2215	2206	2175	2066	2024	1974	1907	1830	1796	1766	1707	1666	1623	1607	1642	1675	1705	1766	1810	1835	1833	1918	1940	1961	1999	2017	2046	2081	2083	2067	2015	1950	1840	1800	1760	1654	1602	1549	1503	1479	1465	1453	1487	1522	1522	1568	1653	1663	1658	1728	1777	1833	1883	2050	2172	2279	2296	2280	2317	2384	2366	2369	2434	2356	2295	2232	2194	2146	2151	2182	2338	2282	2205	2144	2088	2071	2019	1949	1970	1989	2011	2044	2004	1943	1901	1998	2062	2050	2012	2052	1989	1917	1811	1737	1634	1583	1554	1505	1458	1348	1298	1241	1111	1073	1061	1092	1153	1165	1228	1346	1386	1389	1346	1341	1416	1476	1525	1565	1591	1575	1502	1464	1423	1336	1296	1266	1247	1210	1177	1114	1036	932	897	865	796	771	744	729	733	752	780	809	858	912	949	977	992	1025	1094	1125	1146	1164	1213	1239	1268	1331	1358	1393	1417	1470	1504	1542	1652	1716	1770	1806	1889	1931	1975	1995	1951	1889	1853	1829	1786	1732	1650	1625	1596	1612	1566	1548	1549	1557	1646	1705	1761	1794	1805	1816	1829	1843	1856	1872	1908	1942	1992	2020	2063	2089	2129	2220	2205	2230	2255	2295	2280	2269	2275	2246	2230	2219	2174	2158	2144	2145	2138	2127	2100	2074	2076	2079	2035	2014	2006	2015	1939	1917	1891	1881	1845	1828	1802	1705	1640	1588	1547	1482	1460	1441	1410	1398	1402	1443	1544	1615	1681	1758	1806	1855	1910	2032	2054	2052	2024	2006	1997	1976	1908	1874	1858	1837	1827	1811	1781	1790	1750	1710	1668	1651	1685	1700	1776	1811	1854	1830	1818	1770	1754	1733	1737	1707	1718	1768	1795	1836	1920	1965	2013	2051	2132	2173	2197	2273	2286	2302	2328	2452	2506	2538	2583	2611	2639	2659	2686	2697	2701	2731	2750	2802	2846	2782	2761	2733	2667	2638	2638	2632	2608	2592	2581	2529	2492	2469	2453	2438	2442	2446	2451	2458	2464	2471	2475	2477	2478	2485	2616	2675	-9999	-9999	-9999	-9999	-9999	-9999	-9999	-9999	-9999	-9999	-9999	-9999	-9999	-9999	-9999	-9999	-9999	-9999	-9999	-9999	-9999	-9999	-9999	-9999	-9999	-9999	-9999	-9999	-9999	-9999	-9999	-9999	-9999	-9999	-9999	-9999	-9999	-9999	-9999	-9999	-9999	-9999	-9999	-9999	-9999	-9999	-9999	-9999	-9999	-9999	-9999	-9999	-9999	-9999	-9999	-9999	-9999	-9999	-9999	-9999	-9999	-9999	-9999	-9999	-9999	-9999	-9999	-9999	-9999	-9999	-9999	-9999	-9999	-9999	-9999	-9999	-9999	-9999	-9999	-9999	-9999	-9999	-9999	-9999	-9999	-9999	-9999	-9999	-9999	-9999	-9999	-9999	-9999	-9999	-9999	-9999	-9999	-9999	-9999	-9999	-9999	-9999	-9999	-9999	-9999	-9999	-9999	-9999	-9999	-9999	-9999	-9999	-9999	-9999	-9999	-9999	-9999	-9999	-9999	-9999	-9999	-9999	-9999	-9999	-9999	-9999	-9999	-9999	-9999	-9999	-9999	-9999	-9999	-9999	-9999	-9999	-9999	-9999	-9999	-9999	-9999	-9999	-9999	-9999	-9999	-9999	-9999	-9999	-9999	-9999	-9999	-9999	-9999	-9999	-9999	-9999	-9999	-9999	-9999	-9999	-9999	-9999	-9999	-9999	-9999	-9999	-9999	-9999	-9999	-9999	-9999	-9999	-9999	-9999	-9999	-9999	-9999	-9999	-9999	-9999	-9999	-9999	-9999	-9999	-9999	-9999	-9999	-9999	-9999	-9999
1979	1956	1935	1908	1841	1806	1777	1760	1722	1691	1646	1578	1575	1575	1648	1692	1723	1770	1936	2026	2088	2119	2198	2251	2289	2328	2310	2276	2253	2212	2219	2245	2316	2372	2398	2437	2539	2584	2647	2694	2668	2667	2670	2677	2666	2626	2583	2540	2498	2466	2405	2374	2338	2292	2186	2171	2163	2076	2032	1976	1914	1849	1818	1783	1712	1674	1629	1586	1604	1637	1667	1736	1775	1793	1804	1861	1885	1911	1963	1990	2017	2020	2034	2034	2002	1894	1836	1784	1735	1634	1588	1533	1473	1467	1450	1453	1505	1547	1590	1621	1702	1736	1748	1755	1753	1807	1868	2020	2113	2231	2363	2352	2399	2455	2451	2448	2459	2336	2282	2227	2174	2098	2080	2090	2247	2297	2202	2131	2043	2023	1986	1910	1921	1940	1957	2006	1981	1911	1857	1926	1994	1997	1929	1955	1937	1871	1774	1657	1574	1535	1514	1472	1425	1322	1276	1221	1099	1068	1090	1126	1219	1221	1247	1383	1430	1445	1447	1487	1467	1516	1630	1643	1620	1601	1523	1482	1452	1363	1324	1289	1266	1226	1192	1129	1003	955	914	882	826	798	772	729	728	743	763	797	837	885	918	968	995	1024	1078	1115	1139	1159	1206	1234	1257	1329	1356	1385	1412	1462	1496	1531	1634	1700	1756	1800	1865	1902	1952	1951	1902	1833	1794	1768	1739	1680	1604	1573	1548	1527	1489	1513	1545	1646	1702	1756	1780	1808	1816	1835	1866	1886	1916	1938	1967	1996	2022	2052	2102	2144	2185	2250	2298	2334	2365	2314	2286	2270	2260	2228	2213	2209	2172	2150	2131	2140	2138	2123	2086	2058	2045	2036	2001	1987	1981	1971	1972	1947	1915	1874	1848	1827	1801	1724	1678	1631	1550	1507	1473	1445	1405	1390	1395	1433	1538	1609	1679	1751	1786	1861	1924	2000	1999	1985	1988	1953	1936	1928	1866	1845	1809	1779	1761	1752	1726	1727	1701	1664	1614	1603	1617	1649	1728	1745	1744	1683	1753	1726	1681	1661	1655	1630	1675	1713	1768	1821	1908	1941	1981	2070	2119	2166	2212	2284	2307	2329	2348	2437	2497	2538	2573	2600	2633	2659	2685	2699	2706	2735	2746	2785	2843	2802	2777	2741	2686	2681	2680	2675	2661	2652	2642	2591	2523	2503	2479	2455	2453	2453	2459	2460	2466	2474	2479	2480	2481	2508	2582	-9999	-9999	-9999	-9999	-9999	-9999	-9999	-9999	-9999	-9999	-9999	-9999	-9999	-9999	-9999	-9999	-9999	-9999	-9999	-9999	-9999	-9999	-9999	-9999	-9999	-9999	-9999	-9999	-9999	-9999	-9999	-9999	-9999	-9999	-9999	-9999	-9999	-9999	-9999	-9999	-9999	-9999	-9999	-9999	-9999	-9999	-9999	-9999	-9999	-9999	-9999	-9999	-9999	-9999	-9999	-9999	-9999	-9999	-9999	-9999	-9999	-9999	-9999	-9999	-9999	-9999	-9999	-9999	-9999	-9999	-9999	-9999	-9999	-9999	-9999	-9999	-9999	-9999	-9999	-9999	-9999	-9999	-9999	-9999	-9999	-9999	-9999	-9999	-9999	-9999	-9999	-9999	-9999	-9999	-9999	-9999	-9999	-9999	-9999	-9999	-9999	-9999	-9999	-9999	-9999	-9999	-9999	-9999	-9999	-9999	-9999	-9999	-9999	-9999	-9999	-9999	-9999	-9999	-9999	-9999	-9999	-9999	-9999	-9999	-9999	-9999	-9999	-9999	-9999	-9999	-9999	-9999	-9999	-9999	-9999	-9999	-9999	-9999	-9999	-9999	-9999	-9999	-9999	-9999	-9999	-9999	-9999	-9999	-9999	-9999	-9999	-9999	-9999	-9999	-9999	-9999	-9999	-9999	-9999	-9999	-9999	-9999	-9999	-9999	-9999	-9999	-9999	-9999	-9999	-9999	-9999	-9999	-9999	-9999	-9999	-9999	-9999	-9999	-9999	-9999	-9999	-9999	-9999	-9999	-9999	-9999	-9999	-9999	-9999	-9999	-9999
1947	1919	1894	1871	1820	1777	1742	1685	1663	1634	1592	1538	1540	1548	1662	1706	1733	1784	1944	2001	2060	2155	2197	2245	2291	2338	2351	2324	2293	2242	2238	2260	2308	2351	2388	2428	2517	2559	2603	2669	2661	2644	2620	2620	2628	2611	2589	2546	2506	2475	2416	2385	2347	2245	2188	2156	2140	2089	2044	1975	1904	1881	1859	1827	1727	1673	1630	1585	1577	1606	1637	1702	1732	1751	1784	1829	1861	1895	1950	1983	1996	1974	1942	1939	1930	1856	1806	1751	1721	1617	1568	1522	1458	1453	1437	1457	1522	1568	1616	1683	1718	1757	1789	1799	1805	1817	1886	1938	2006	2098	2344	2411	2414	2415	2412	2432	2443	2325	2274	2226	2167	2088	2056	2056	2141	2246	2214	2118	1991	1949	1928	1844	1821	1891	1912	1956	1955	1892	1787	1830	1881	1913	1855	1866	1862	1823	1720	1605	1538	1415	1420	1401	1301	1245	1201	1141	1086	1085	1122	1210	1270	1297	1311	1413	1461	1501	1514	1553	1551	1542	1666	1670	1661	1638	1559	1548	1513	1420	1350	1312	1286	1241	1210	1150	1034	976	932	902	839	812	783	730	726	735	758	787	806	839	930	947	970	1005	1079	1117	1137	1172	1197	1226	1257	1327	1359	1387	1415	1458	1490	1529	1629	1685	1743	1781	1837	1852	1860	1820	1858	1795	1727	1687	1681	1631	1556	1531	1509	1487	1497	1533	1569	1664	1729	1783	1824	1837	1860	1902	1940	1969	1968	2004	2052	2065	2068	2099	2132	2178	2225	2269	2310	2350	2337	2306	2277	2251	2193	2168	2150	2169	2178	2143	2109	2154	2142	2117	2092	2036	2013	2000	1981	1980	1976	1968	1984	1953	1923	1880	1857	1844	1815	1746	1725	1708	1644	1591	1506	1471	1416	1389	1380	1451	1503	1559	1609	1684	1733	1821	1919	1955	1955	1935	1869	1854	1827	1820	1777	1750	1766	1718	1690	1689	1667	1651	1639	1613	1565	1555	1574	1607	1666	1680	1680	1626	1623	1596	1579	1562	1552	1548	1608	1684	1740	1795	1893	1929	1967	2065	2111	2156	2199	2284	2323	2346	2397	2442	2490	2530	2575	2599	2617	2663	2682	2703	2720	2745	2753	2789	2839	2822	2788	2742	2691	2690	2693	2693	2680	2671	2659	2615	2586	2550	2514	2488	2485	2480	2464	2464	2471	2479	2486	2486	2489	2504	2565	-9999	-9999	-9999	-9999	-9999	-9999	-9999	-9999	-9999	-9999	-9999	-9999	-9999	-9999	-9999	-9999	-9999	-9999	-9999	-9999	-9999	-9999	-9999	-9999	-9999	-9999	-9999	-9999	-9999	-9999	-9999	-9999	-9999	-9999	-9999	-9999	-9999	-9999	-9999	-9999	-9999	-9999	-9999	-9999	-9999	-9999	-9999	-9999	-9999	-9999	-9999	-9999	-9999	-9999	-9999	-9999	-9999	-9999	-9999	-9999	-9999	-9999	-9999	-9999	-9999	-9999	-9999	-9999	-9999	-9999	-9999	-9999	-9999	-9999	-9999	-9999	-9999	-9999	-9999	-9999	-9999	-9999	-9999	-9999	-9999	-9999	-9999	-9999	-9999	-9999	-9999	-9999	-9999	-9999	-9999	-9999	-9999	-9999	-9999	-9999	-9999	-9999	-9999	-9999	-9999	-9999	-9999	-9999	-9999	-9999	-9999	-9999	-9999	-9999	-9999	-9999	-9999	-9999	-9999	-9999	-9999	-9999	-9999	-9999	-9999	-9999	-9999	-9999	-9999	-9999	-9999	-9999	-9999	-9999	-9999	-9999	-9999	-9999	-9999	-9999	-9999	-9999	-9999	-9999	-9999	-9999	-9999	-9999	-9999	-9999	-9999	-9999	-9999	-9999	-9999	-9999	-9999	-9999	-9999	-9999	-9999	-9999	-9999	-9999	-9999	-9999	-9999	-9999	-9999	-9999	-9999	-9999	-9999	-9999	-9999	-9999	-9999	-9999	-9999	-9999	-9999	-9999	-9999	-9999	-9999	-9999	-9999	-9999	-9999	-9999	-9999
1891	1843	1804	1778	1717	1749	1710	1662	1636	1606	1561	1508	1506	1548	1672	1723	1753	1795	1926	1982	2047	2141	2171	2183	2208	2294	2329	2373	2317	2283	2274	2277	2317	2337	2365	2403	2500	2535	2565	2621	2644	2640	2616	2598	2582	2588	2573	2549	2533	2519	2431	2396	2345	2250	2191	2141	2123	2094	2044	1988	1922	1895	1871	1840	1735	1690	1649	1571	1550	1553	1576	1624	1680	1720	1765	1798	1837	1875	1940	1978	1971	1935	1886	1888	1895	1814	1776	1720	1660	1564	1519	1483	1429	1416	1434	1462	1536	1584	1631	1712	1752	1787	1823	1842	1855	1854	1899	1939	1985	2046	2259	2368	2321	2310	2340	2386	2439	2324	2265	2209	2107	2077	2048	2025	2075	2183	2221	2105	1972	1925	1882	1819	1778	1797	1818	1857	1876	1838	1718	1689	1807	1843	1777	1783	1790	1749	1645	1561	1498	1382	1350	1353	1261	1206	1153	1109	1163	1172	1168	1271	1319	1359	1362	1427	1486	1537	1584	1594	1627	1627	1678	1695	1682	1624	1588	1578	1543	1451	1403	1360	1324	1272	1245	1191	1084	1005	953	918	847	818	789	730	726	729	753	776	797	832	909	931	973	1018	1080	1105	1116	1163	1183	1207	1258	1325	1362	1387	1444	1465	1487	1523	1618	1668	1724	1798	1818	1830	1823	1757	1724	1689	1641	1559	1559	1540	1514	1492	1470	1457	1517	1555	1594	1690	1750	1805	1848	1864	1894	1928	1968	1996	2029	2062	2104	2122	2140	2174	2199	2205	2254	2288	2324	2361	2308	2280	2248	2204	2148	2148	2147	2184	2177	2143	2103	2141	2167	2172	2113	2067	2031	2002	1984	1990	1992	1998	1990	1960	1931	1889	1876	1855	1825	1773	1759	1744	1681	1633	1588	1546	1478	1445	1390	1376	1452	1494	1536	1630	1690	1777	1872	1903	1900	1879	1814	1794	1763	1755	1725	1697	1659	1644	1598	1574	1550	1536	1525	1560	1518	1521	1549	1585	1612	1623	1621	1578	1568	1540	1529	1520	1516	1525	1596	1645	1705	1769	1875	1916	1961	2065	2101	2150	2201	2302	2355	2385	2412	2452	2492	2526	2578	2600	2619	2672	2692	2730	2754	2776	2791	2814	2877	2842	2798	2746	2697	2696	2702	2703	2697	2687	2677	2636	2606	2562	2528	2506	2504	2500	2494	2491	2496	2502	2511	2520	2527	2515	-9999	-9999	-9999	-9999	-9999	-9999	-9999	-9999	-9999	-9999	-9999	-9999	-9999	-9999	-9999	-9999	-9999	-9999	-9999	-9999	-9999	-9999	-9999	-9999	-9999	-9999	-9999	-9999	-9999	-9999	-9999	-9999	-9999	-9999	-9999	-9999	-9999	-9999	-9999	-9999	-9999	-9999	-9999	-9999	-9999	-9999	-9999	-9999	-9999	-9999	-9999	-9999	-9999	-9999	-9999	-9999	-9999	-9999	-9999	-9999	-9999	-9999	-9999	-9999	-9999	-9999	-9999	-9999	-9999	-9999	-9999	-9999	-9999	-9999	-9999	-9999	-9999	-9999	-9999	-9999	-9999	-9999	-9999	-9999	-9999	-9999	-9999	-9999	-9999	-9999	-9999	-9999	-9999	-9999	-9999	-9999	-9999	-9999	-9999	-9999	-9999	-9999	-9999	-9999	-9999	-9999	-9999	-9999	-9999	-9999	-9999	-9999	-9999	-9999	-9999	-9999	-9999	-9999	-9999	-9999	-9999	-9999	-9999	-9999	-9999	-9999	-9999	-9999	-9999	-9999	-9999	-9999	-9999	-9999	-9999	-9999	-9999	-9999	-9999	-9999	-9999	-9999	-9999	-9999	-9999	-9999	-9999	-9999	-9999	-9999	-9999	-9999	-9999	-9999	-9999	-9999	-9999	-9999	-9999	-9999	-9999	-9999	-9999	-9999	-9999	-9999	-9999	-9999	-9999	-9999	-9999	-9999	-9999	-9999	-9999	-9999	-9999	-9999	-9999	-9999	-9999	-9999	-9999	-9999	-9999	-9999	-9999	-9999	-9999	-9999	-9999	-9999
1860	1818	1781	1751	1693	1675	1656	1608	1579	1548	1519	1480	1494	1550	1687	1746	1793	1824	1923	1977	2039	2122	2152	2175	2186	2254	2274	2307	2393	2397	2371	2346	2340	2359	2369	2434	2485	2517	2543	2580	2605	2623	2605	2594	2582	2583	2568	2560	2548	2542	2511	2452	2351	2233	2183	2154	2128	2090	2038	1997	1953	1922	1894	1858	1757	1714	1679	1600	1570	1546	1548	1597	1624	1644	1703	1747	1786	1828	1910	1961	1943	1849	1834	1846	1854	1769	1729	1668	1569	1527	1489	1460	1416	1419	1440	1472	1555	1613	1662	1749	1793	1820	1848	1874	1896	1903	1925	1962	1990	2023	2185	2313	2291	2298	2332	2412	2442	2319	2250	2179	2085	2040	1997	1981	2027	2086	2175	2003	1949	1899	1844	1794	1745	1751	1789	1809	1826	1812	1693	1641	1670	1730	1695	1638	1617	1579	1575	1513	1457	1344	1294	1287	1219	1163	1117	1126	1214	1209	1197	1304	1366	1411	1449	1462	1507	1576	1688	1704	1715	1704	1705	1718	1702	1651	1620	1608	1575	1482	1431	1384	1319	1296	1263	1208	1104	1053	996	916	877	843	809	734	725	726	748	767	785	813	889	930	968	1012	1068	1083	1104	1160	1180	1198	1240	1315	1361	1403	1467	1483	1493	1521	1605	1639	1686	1776	1799	1803	1786	1684	1642	1620	1538	1510	1499	1491	1431	1417	1441	1522	1571	1614	1655	1730	1795	1839	1874	1892	1923	1950	1992	2023	2053	2082	2126	2144	2161	2202	2228	2268	2302	2340	2359	2329	2249	2246	2208	2162	2110	2126	2153	2177	2164	2134	2094	2130	2176	2192	2150	2119	2077	2038	2015	2036	2033	2030	2005	1979	1940	1899	1890	1861	1821	1816	1800	1781	1726	1682	1635	1587	1518	1472	1410	1354	1381	1417	1452	1561	1634	1704	1834	1846	1837	1817	1759	1728	1707	1697	1672	1640	1620	1584	1558	1517	1494	1482	1470	1461	1441	1471	1498	1528	1529	1570	1565	1527	1517	1496	1485	1486	1490	1528	1607	1656	1706	1762	1874	1927	1977	2072	2126	2211	2282	2356	2371	2390	2428	2464	2503	2533	2588	2621	2653	2702	2716	2748	2759	2783	2810	2853	2886	2842	2809	2784	2727	2723	2717	2725	2710	2702	2693	2654	2623	2579	2531	2526	2525	2526	2522	2518	2517	2520	2529	2541	2546	2552	-9999	-9999	-9999	-9999	-9999	-9999	-9999	-9999	-9999	-9999	-9999	-9999	-9999	-9999	-9999	-9999	-9999	-9999	-9999	-9999	-9999	-9999	-9999	-9999	-9999	-9999	-9999	-9999	-9999	-9999	-9999	-9999	-9999	-9999	-9999	-9999	-9999	-9999	-9999	-9999	-9999	-9999	-9999	-9999	-9999	-9999	-9999	-9999	-9999	-9999	-9999	-9999	-9999	-9999	-9999	-9999	-9999	-9999	-9999	-9999	-9999	-9999	-9999	-9999	-9999	-9999	-9999	-9999	-9999	-9999	-9999	-9999	-9999	-9999	-9999	-9999	-9999	-9999	-9999	-9999	-9999	-9999	-9999	-9999	-9999	-9999	-9999	-9999	-9999	-9999	-9999	-9999	-9999	-9999	-9999	-9999	-9999	-9999	-9999	-9999	-9999	-9999	-9999	-9999	-9999	-9999	-9999	-9999	-9999	-9999	-9999	-9999	-9999	-9999	-9999	-9999	-9999	-9999	-9999	-9999	-9999	-9999	-9999	-9999	-9999	-9999	-9999	-9999	-9999	-9999	-9999	-9999	-9999	-9999	-9999	-9999	-9999	-9999	-9999	-9999	-9999	-9999	-9999	-9999	-9999	-9999	-9999	-9999	-9999	-9999	-9999	-9999	-9999	-9999	-9999	-9999	-9999	-9999	-9999	-9999	-9999	-9999	-9999	-9999	-9999	-9999	-9999	-9999	-9999	-9999	-9999	-9999	-9999	-9999	-9999	-9999	-9999	-9999	-9999	-9999	-9999	-9999	-9999	-9999	-9999	-9999	-9999	-9999	-9999	-9999	-9999	-9999
1834	1807	1775	1716	1698	1678	1654	1605	1571	1538	1477	1467	1495	1539	1659	1733	1799	1839	1950	1993	2033	2113	2140	2151	2172	2224	2253	2276	2367	2412	2429	2414	2384	2388	2406	2453	2468	2483	2498	2523	2566	2594	2609	2590	2580	2575	2551	2520	2490	2478	2471	2442	2351	2229	2191	2167	2129	2110	2069	2066	2042	2001	1963	1894	1784	1743	1706	1631	1597	1564	1541	1568	1591	1608	1674	1712	1756	1802	1889	1895	1868	1768	1733	1758	1763	1734	1684	1624	1535	1494	1462	1438	1406	1416	1442	1518	1569	1626	1680	1768	1810	1852	1894	1912	1933	1946	1978	1995	1997	2019	2136	2253	2257	2300	2339	2429	2439	2304	2238	2165	2074	2029	1982	1948	1941	1965	1994	1993	1921	1855	1814	1746	1716	1699	1735	1757	1778	1778	1677	1617	1588	1663	1635	1591	1547	1500	1460	1418	1314	1270	1227	1189	1144	1130	1131	1170	1252	1260	1231	1320	1387	1449	1493	1508	1524	1591	1715	1753	1761	1764	1751	1746	1738	1710	1684	1644	1612	1509	1462	1405	1345	1319	1278	1227	1117	1068	1020	931	894	860	826	751	728	725	736	752	757	775	876	921	961	1046	1062	1069	1101	1160	1182	1201	1232	1319	1367	1408	1474	1493	1502	1518	1576	1601	1630	1684	1765	1767	1740	1613	1570	1544	1481	1463	1457	1451	1409	1435	1485	1585	1619	1671	1718	1835	1896	1956	1898	1907	1954	1975	2017	2051	2082	2134	2153	2171	2185	2224	2255	2291	2319	2363	2348	2299	2216	2181	2140	2098	2084	2107	2137	2139	2133	2105	2068	2127	2179	2210	2182	2169	2131	2079	2036	2064	2083	2037	2010	1988	1962	1931	1907	1897	1932	1919	1839	1814	1757	1716	1668	1578	1554	1508	1441	1341	1356	1384	1450	1512	1594	1667	1701	1727	1725	1694	1642	1621	1611	1638	1617	1583	1558	1519	1507	1469	1442	1425	1420	1408	1401	1438	1473	1486	1490	1489	1468	1425	1425	1414	1431	1444	1485	1540	1645	1689	1740	1828	1893	1951	2010	2123	2163	2241	2279	2268	2260	2290	2367	2395	2421	2481	2488	2487	2598	2649	2714	2728	2739	2791	2833	2876	2890	2851	2832	2810	2746	2733	2729	2731	2729	2728	2722	2680	2651	2608	2565	2549	2546	2548	2548	2546	2546	2540	2545	2555	2560	-9999	-9999	-9999	-9999	-9999	-9999	-9999	-9999	-9999	-9999	-9999	-9999	-9999	-9999	-9999	-9999	-9999	-9999	-9999	-9999	-9999	-9999	-9999	-9999	-9999	-9999	-9999	-9999	-9999	-9999	-9999	-9999	-9999	-9999	-9999	-9999	-9999	-9999	-9999	-9999	-9999	-9999	-9999	-9999	-9999	-9999	-9999	-9999	-9999	-9999	-9999	-9999	-9999	-9999	-9999	-9999	-9999	-9999	-9999	-9999	-9999	-9999	-9999	-9999	-9999	-9999	-9999	-9999	-9999	-9999	-9999	-9999	-9999	-9999	-9999	-9999	-9999	-9999	-9999	-9999	-9999	-9999	-9999	-9999	-9999	-9999	-9999	-9999	-9999	-9999	-9999	-9999	-9999	-9999	-9999	-9999	-9999	-9999	-9999	-9999	-9999	-9999	-9999	-9999	-9999	-9999	-9999	-9999	-9999	-9999	-9999	-9999	-9999	-9999	-9999	-9999	-9999	-9999	-9999	-9999	-9999	-9999	-9999	-9999	-9999	-9999	-9999	-9999	-9999	-9999	-9999	-9999	-9999	-9999	-9999	-9999	-9999	-9999	-9999	-9999	-9999	-9999	-9999	-9999	-9999	-9999	-9999	-9999	-9999	-9999	-9999	-9999	-9999	-9999	-9999	-9999	-9999	-9999	-9999	-9999	-9999	-9999	-9999	-9999	-9999	-9999	-9999	-9999	-9999	-9999	-9999	-9999	-9999	-9999	-9999	-9999	-9999	-9999	-9999	-9999	-9999	-9999	-9999	-9999	-9999	-9999	-9999	-9999	-9999	-9999	-9999	-9999	-9999
1791	1802	1772	1716	1699	1673	1648	1589	1558	1523	1470	1469	1505	1550	1671	1750	1819	1917	1965	1994	2016	2081	2117	2157	2193	2209	2238	2268	2324	2386	2439	2466	2440	2420	2419	2452	2464	2475	2484	2495	2524	2560	2622	2598	2569	2549	2531	2481	2442	2425	2422	2416	2364	2234	2203	2182	2157	2153	2127	2126	2067	2026	1978	1905	1857	1813	1774	1692	1650	1591	1536	1541	1555	1576	1646	1687	1731	1778	1858	1824	1798	1723	1689	1708	1696	1631	1592	1554	1480	1445	1423	1409	1396	1414	1443	1525	1576	1630	1686	1784	1825	1858	1901	1921	1947	1965	1985	2000	2021	2050	2080	2134	2210	2330	2371	2451	2350	2274	2210	2148	2065	2020	1977	1931	1906	1920	1938	1958	1918	1853	1795	1682	1648	1629	1632	1664	1689	1743	1668	1608	1544	1580	1569	1534	1491	1446	1413	1371	1277	1234	1199	1159	1140	1168	1210	1276	1310	1340	1312	1322	1392	1482	1555	1557	1554	1603	1717	1764	1799	1798	1775	1766	1749	1725	1703	1688	1655	1555	1506	1462	1384	1345	1292	1246	1143	1096	1043	951	912	874	843	774	736	723	725	741	749	765	842	895	937	1031	1055	1059	1100	1160	1184	1206	1273	1318	1361	1405	1477	1494	1494	1526	1558	1583	1607	1621	1636	1628	1613	1512	1477	1430	1378	1419	1421	1408	1428	1466	1518	1651	1685	1739	1790	1883	1937	1985	1915	1916	1965	2019	2077	2106	2138	2196	2216	2230	2210	2250	2277	2317	2366	2355	2319	2269	2179	2140	2105	2054	2082	2085	2106	2116	2088	2054	2026	2132	2180	2244	2207	2191	2165	2132	2068	2096	2107	2045	2018	1997	1970	1943	1926	1929	1976	1947	1899	1865	1802	1758	1715	1629	1603	1544	1481	1350	1331	1344	1406	1467	1535	1589	1630	1663	1672	1617	1583	1561	1550	1516	1492	1475	1432	1414	1403	1423	1395	1375	1366	1357	1349	1393	1418	1435	1451	1441	1415	1383	1386	1383	1413	1429	1459	1501	1613	1695	1756	1831	1942	1991	2055	2166	2205	2216	2196	2204	2200	2224	2309	2339	2357	2431	2458	2477	2494	2599	2636	2673	2716	2731	2755	2829	2893	2867	2855	2807	2776	2757	2754	2741	2744	2739	2734	2702	2671	2620	2579	2580	2588	2594	2607	2614	2609	2560	2561	2567	-9999	-9999	-9999	-9999	-9999	-9999	-9999	-9999	-9999	-9999	-9999	-9999	-9999	-9999	-9999	-9999	-9999	-9999	-9999	-9999	-9999	-9999	-9999	-9999	-9999	-9999	-9999	-9999	-9999	-9999	-9999	-9999	-9999	-9999	-9999	-9999	-9999	-9999	-9999	-9999	-9999	-9999	-9999	-9999	-9999	-9999	-9999	-9999	-9999	-9999	-9999	-9999	-9999	-9999	-9999	-9999	-9999	-9999	-9999	-9999	-9999	-9999	-9999	-9999	-9999	-9999	-9999	-9999	-9999	-9999	-9999	-9999	-9999	-9999	-9999	-9999	-9999	-9999	-9999	-9999	-9999	-9999	-9999	-9999	-9999	-9999	-9999	-9999	-9999	-9999	-9999	-9999	-9999	-9999	-9999	-9999	-9999	-9999	-9999	-9999	-9999	-9999	-9999	-9999	-9999	-9999	-9999	-9999	-9999	-9999	-9999	-9999	-9999	-9999	-9999	-9999	-9999	-9999	-9999	-9999	-9999	-9999	-9999	-9999	-9999	-9999	-9999	-9999	-9999	-9999	-9999	-9999	-9999	-9999	-9999	-9999	-9999	-9999	-9999	-9999	-9999	-9999	-9999	-9999	-9999	-9999	-9999	-9999	-9999	-9999	-9999	-9999	-9999	-9999	-9999	-9999	-9999	-9999	-9999	-9999	-9999	-9999	-9999	-9999	-9999	-9999	-9999	-9999	-9999	-9999	-9999	-9999	-9999	-9999	-9999	-9999	-9999	-9999	-9999	-9999	-9999	-9999	-9999	-9999	-9999	-9999	-9999	-9999	-9999	-9999	-9999	-9999	-9999	-9999
1754	1731	1714	1666	1636	1620	1573	1520	1538	1511	1465	1482	1521	1569	1698	1767	1825	1942	1992	2017	2031	2079	2102	2150	2183	2197	2212	2231	2299	2329	2404	2456	2458	2455	2446	2421	2454	2466	2477	2479	2500	2545	2611	2594	2561	2523	2448	2417	2392	2334	2320	2314	2342	2260	2224	2203	2179	2178	2193	2169	2083	2041	1986	1909	1875	1835	1796	1719	1683	1644	1580	1558	1530	1530	1588	1661	1704	1794	1807	1765	1736	1663	1640	1656	1598	1571	1542	1513	1457	1427	1409	1390	1398	1417	1441	1526	1571	1621	1689	1785	1823	1853	1901	1923	1951	1973	2002	2020	2035	2051	2069	2108	2173	2360	2477	2402	2274	2218	2171	2126	2046	2013	1966	1883	1868	1878	1886	1921	1902	1851	1738	1682	1630	1599	1584	1614	1647	1661	1626	1573	1513	1462	1477	1487	1445	1391	1363	1325	1236	1200	1174	1153	1203	1235	1275	1333	1354	1393	1354	1331	1390	1475	1620	1647	1640	1643	1715	1764	1813	1815	1798	1782	1763	1731	1713	1699	1623	1574	1529	1490	1409	1365	1321	1279	1191	1140	1089	985	930	891	859	790	750	723	721	732	746	759	826	872	924	1009	1038	1052	1077	1140	1165	1185	1248	1294	1333	1397	1473	1482	1474	1472	1510	1538	1562	1546	1582	1567	1505	1462	1432	1391	1345	1334	1351	1428	1482	1537	1588	1705	1740	1778	1830	1938	1999	2019	1942	1944	1991	2035	2098	2132	2163	2225	2261	2284	2283	2306	2331	2335	2278	2248	2278	2235	2148	2103	2070	2038	2064	2062	2069	2073	2053	2024	2078	2121	2177	2240	2255	2231	2202	2136	2137	2152	2131	2055	2029	2004	1990	1960	1957	1983	1986	1956	1920	1885	1820	1777	1733	1650	1621	1590	1550	1423	1345	1288	1323	1418	1471	1517	1556	1581	1616	1561	1527	1488	1477	1447	1430	1420	1377	1361	1344	1333	1313	1301	1288	1284	1290	1290	1352	1388	1407	1375	1353	1356	1364	1374	1400	1410	1435	1467	1548	1604	1660	1758	1817	1867	1925	2016	2044	2044	2087	2150	2167	2204	2280	2311	2351	2442	2474	2503	2526	2600	2637	2671	2709	2734	2764	2814	2913	2912	2909	2891	2855	2794	2784	2762	2762	2757	2754	2761	2739	2661	2606	2615	2631	2645	2651	2648	2640	2613	2604	2608	-9999	-9999	-9999	-9999	-9999	-9999	-9999	-9999	-9999	-9999	-9999	-9999	-9999	-9999	-9999	-9999	-9999	-9999	-9999	-9999	-9999	-9999	-9999	-9999	-9999	-9999	-9999	-9999	-9999	-9999	-9999	-9999	-9999	-9999	-9999	-9999	-9999	-9999	-9999	-9999	-9999	-9999	-9999	-9999	-9999	-9999	-9999	-9999	-9999	-9999	-9999	-9999	-9999	-9999	-9999	-9999	-9999	-9999	-9999	-9999	-9999	-9999	-9999	-9999	-9999	-9999	-9999	-9999	-9999	-9999	-9999	-9999	-9999	-9999	-9999	-9999	-9999	-9999	-9999	-9999	-9999	-9999	-9999	-9999	-9999	-9999	-9999	-9999	-9999	-9999	-9999	-9999	-9999	-9999	-9999	-9999	-9999	-9999	-9999	-9999	-9999	-9999	-9999	-9999	-9999	-9999	-9999	-9999	-9999	-9999	-9999	-9999	-9999	-9999	-9999	-9999	-9999	-9999	-9999	-9999	-9999	-9999	-9999	-9999	-9999	-9999	-9999	-9999	-9999	-9999	-9999	-9999	-9999	-9999	-9999	-9999	-9999	-9999	-9999	-9999	-9999	-9999	-9999	-9999	-9999	-9999	-9999	-9999	-9999	-9999	-9999	-9999	-9999	-9999	-9999	-9999	-9999	-9999	-9999	-9999	-9999	-9999	-9999	-9999	-9999	-9999	-9999	-9999	-9999	-9999	-9999	-9999	-9999	-9999	-9999	-9999	-9999	-9999	-9999	-9999	-9999	-9999	-9999	-9999	-9999	-9999	-9999	-9999	-9999	-9999	-9999	-9999	-9999	-9999
1723	1690	1672	1625	1584	1548	1516	1479	1469	1460	1488	1525	1570	1622	1730	1786	1825	1924	1976	2015	2044	2094	2102	2126	2183	2195	2208	2222	2293	2328	2334	2325	2338	2347	2369	2353	2388	2442	2466	2474	2490	2538	2596	2583	2570	2459	2418	2386	2356	2287	2273	2272	2331	2345	2345	2326	2262	2251	2245	2182	2087	2044	1997	1909	1880	1849	1816	1750	1706	1667	1603	1583	1561	1533	1540	1571	1610	1679	1678	1646	1609	1560	1590	1595	1551	1521	1498	1476	1432	1412	1392	1375	1396	1415	1440	1516	1560	1596	1674	1711	1755	1796	1851	1884	1937	1959	1992	2017	2049	2067	2075	2102	2143	2323	2439	2388	2252	2212	2174	2136	2049	2006	1960	1869	1820	1794	1799	1877	1877	1840	1744	1687	1629	1567	1539	1571	1596	1597	1580	1549	1492	1399	1412	1391	1317	1294	1274	1242	1182	1171	1159	1176	1264	1294	1342	1393	1420	1429	1394	1345	1403	1477	1643	1676	1686	1687	1734	1787	1842	1871	1842	1814	1776	1738	1722	1707	1638	1591	1548	1508	1428	1393	1352	1270	1219	1171	1112	1001	951	917	856	817	777	737	722	730	740	755	806	845	901	981	1016	1033	1046	1111	1130	1161	1239	1278	1311	1355	1438	1454	1433	1344	1354	1454	1475	1476	1518	1521	1435	1410	1382	1354	1313	1320	1352	1439	1495	1553	1615	1733	1807	1864	1962	2013	2056	2059	1980	1983	2021	2085	2118	2150	2182	2243	2287	2330	2320	2313	2289	2268	2218	2191	2172	2156	2077	2035	2010	1974	2005	2033	2033	2027	2009	1991	2064	2111	2169	2232	2261	2232	2193	2162	2169	2169	2149	2080	2050	2041	2025	2034	2060	2043	1998	1966	1933	1867	1835	1796	1749	1669	1639	1607	1569	1444	1373	1301	1275	1307	1340	1368	1444	1438	1431	1405	1464	1429	1404	1376	1365	1358	1321	1308	1305	1300	1282	1273	1260	1271	1273	1271	1279	1314	1336	1339	1338	1346	1357	1368	1385	1390	1402	1464	1509	1555	1602	1702	1755	1809	1910	1946	1970	1982	2052	2087	2119	2147	2280	2323	2341	2457	2497	2538	2566	2599	2631	2660	2731	2745	2779	2832	2950	2950	2945	2954	2913	2862	2838	2822	2803	2798	2825	2831	2798	2734	2658	2662	2670	2679	2683	2675	2667	2645	2635	-9999	-9999	-9999	-9999	-9999	-9999	-9999	-9999	-9999	-9999	-9999	-9999	-9999	-9999	-9999	-9999	-9999	-9999	-9999	-9999	-9999	-9999	-9999	-9999	-9999	-9999	-9999	-9999	-9999	-9999	-9999	-9999	-9999	-9999	-9999	-9999	-9999	-9999	-9999	-9999	-9999	-9999	-9999	-9999	-9999	-9999	-9999	-9999	-9999	-9999	-9999	-9999	-9999	-9999	-9999	-9999	-9999	-9999	-9999	-9999	-9999	-9999	-9999	-9999	-9999	-9999	-9999	-9999	-9999	-9999	-9999	-9999	-9999	-9999	-9999	-9999	-9999	-9999	-9999	-9999	-9999	-9999	-9999	-9999	-9999	-9999	-9999	-9999	-9999	-9999	-9999	-9999	-9999	-9999	-9999	-9999	-9999	-9999	-9999	-9999	-9999	-9999	-9999	-9999	-9999	-9999	-9999	-9999	-9999	-9999	-9999	-9999	-9999	-9999	-9999	-9999	-9999	-9999	-9999	-9999	-9999	-9999	-9999	-9999	-9999	-9999	-9999	-9999	-9999	-9999	-9999	-9999	-9999	-9999	-9999	-9999	-9999	-9999	-9999	-9999	-9999	-9999	-9999	-9999	-9999	-9999	-9999	-9999	-9999	-9999	-9999	-9999	-9999	-9999	-9999	-9999	-9999	-9999	-9999	-9999	-9999	-9999	-9999	-9999	-9999	-9999	-9999	-9999	-9999	-9999	-9999	-9999	-9999	-9999	-9999	-9999	-9999	-9999	-9999	-9999	-9999	-9999	-9999	-9999	-9999	-9999	-9999	-9999	-9999	-9999	-9999	-9999	-9999	-9999	-9999
1711	1662	1621	1578	1540	1498	1443	1430	1429	1452	1514	1557	1609	1722	1763	1805	1833	1902	1946	1974	2000	2081	2099	2100	2166	2193	2210	2226	2282	2287	2280	2276	2280	2286	2316	2323	2357	2382	2437	2451	2457	2488	2498	2551	2573	2446	2397	2363	2337	2262	2235	2226	2284	2301	2272	2292	2280	2248	2239	2164	2114	2060	2002	1922	1901	1876	1809	1770	1728	1683	1620	1605	1586	1557	1512	1520	1550	1589	1593	1576	1547	1515	1507	1505	1473	1449	1423	1407	1410	1393	1373	1377	1394	1412	1439	1500	1540	1583	1674	1705	1742	1775	1833	1860	1888	1946	1980	2000	2017	2068	2098	2108	2180	2270	2427	2439	2255	2217	2192	2177	2067	2012	1961	1871	1823	1773	1742	1774	1806	1799	1720	1669	1614	1572	1480	1514	1538	1538	1523	1502	1461	1366	1356	1338	1283	1262	1239	1210	1178	1206	1252	1306	1342	1398	1413	1509	1472	1473	1395	1369	1411	1484	1654	1708	1728	1729	1766	1804	1855	1888	1860	1830	1804	1761	1748	1733	1666	1639	1604	1527	1450	1415	1374	1299	1253	1198	1132	1018	968	934	878	834	796	749	720	722	728	758	784	803	839	941	965	995	1050	1081	1117	1161	1226	1267	1290	1365	1405	1406	1387	1280	1288	1293	1318	1339	1347	1353	1331	1319	1334	1310	1303	1335	1368	1454	1512	1571	1629	1746	1816	1895	2000	2039	2073	2091	2038	2050	2081	2128	2153	2184	2197	2257	2296	2347	2311	2285	2249	2222	2170	2143	2123	2076	2037	1998	1970	1944	1971	1973	1972	1949	1925	1959	2027	2097	2159	2225	2270	2235	2206	2190	2188	2182	2160	2101	2087	2073	2077	2100	2119	2092	2027	1981	1940	1867	1830	1796	1761	1679	1647	1614	1511	1449	1386	1320	1235	1266	1299	1342	1370	1369	1359	1338	1321	1305	1268	1252	1247	1240	1271	1268	1267	1269	1253	1249	1247	1261	1263	1270	1277	1303	1322	1327	1345	1350	1358	1364	1375	1380	1384	1415	1455	1522	1569	1654	1700	1757	1865	1892	1920	1949	2027	2055	2082	2162	2227	2253	2294	2379	2428	2471	2540	2562	2595	2636	2794	2799	2822	2873	2989	2992	2985	2993	2975	2926	2874	2847	2821	2822	2849	2843	2827	2800	2739	2725	2711	2715	2698	2693	2683	2662	2655	-9999	-9999	-9999	-9999	-9999	-9999	-9999	-9999	-9999	-9999	-9999	-9999	-9999	-9999	-9999	-9999	-9999	-9999	-9999	-9999	-9999	-9999	-9999	-9999	-9999	-9999	-9999	-9999	-9999	-9999	-9999	-9999	-9999	-9999	-9999	-9999	-9999	-9999	-9999	-9999	-9999	-9999	-9999	-9999	-9999	-9999	-9999	-9999	-9999	-9999	-9999	-9999	-9999	-9999	-9999	-9999	-9999	-9999	-9999	-9999	-9999	-9999	-9999	-9999	-9999	-9999	-9999	-9999	-9999	-9999	-9999	-9999	-9999	-9999	-9999	-9999	-9999	-9999	-9999	-9999	-9999	-9999	-9999	-9999	-9999	-9999	-9999	-9999	-9999	-9999	-9999	-9999	-9999	-9999	-9999	-9999	-9999	-9999	-9999	-9999	-9999	-9999	-9999	-9999	-9999	-9999	-9999	-9999	-9999	-9999	-9999	-9999	-9999	-9999	-9999	-9999	-9999	-9999	-9999	-9999	-9999	-9999	-9999	-9999	-9999	-9999	-9999	-9999	-9999	-9999	-9999	-9999	-9999	-9999	-9999	-9999	-9999	-9999	-9999	-9999	-9999	-9999	-9999	-9999	-9999	-9999	-9999	-9999	-9999	-9999	-9999	-9999	-9999	-9999	-9999	-9999	-9999	-9999	-9999	-9999	-9999	-9999	-9999	-9999	-9999	-9999	-9999	-9999	-9999	-9999	-9999	-9999	-9999	-9999	-9999	-9999	-9999	-9999	-9999	-9999	-9999	-9999	-9999	-9999	-9999	-9999	-9999	-9999	-9999	-9999	-9999	-9999	-9999	-9999	-9999
1678	1659	1604	1508	1476	1465	1404	1406	1442	1489	1558	1601	1648	1754	1795	1833	1865	1923	1945	1967	2005	2041	2069	2083	2143	2178	2215	2257	2249	2226	2205	2220	2233	2250	2280	2274	2312	2339	2386	2402	2417	2449	2434	2471	2516	2433	2389	2360	2333	2262	2226	2201	2230	2261	2225	2207	2207	2175	2192	2175	2128	2075	2017	1941	1915	1892	1838	1807	1770	1728	1647	1632	1599	1563	1539	1517	1503	1529	1530	1519	1478	1468	1465	1464	1432	1408	1385	1370	1371	1362	1345	1369	1386	1410	1430	1510	1557	1608	1710	1751	1781	1809	1849	1861	1880	1937	1972	1985	1998	2052	2087	2141	2197	2246	2401	2506	2260	2222	2200	2146	2093	2024	1970	1866	1819	1771	1703	1718	1747	1766	1700	1657	1603	1553	1447	1415	1427	1447	1419	1393	1423	1348	1318	1297	1256	1240	1216	1190	1212	1255	1304	1381	1406	1430	1447	1535	1562	1557	1472	1429	1448	1501	1655	1718	1764	1779	1801	1835	1872	1908	1883	1852	1800	1783	1768	1750	1690	1658	1631	1592	1499	1459	1421	1342	1308	1219	1151	1037	996	958	897	857	821	774	718	720	722	745	768	783	803	865	911	951	1046	1084	1120	1156	1224	1261	1281	1316	1361	1347	1318	1213	1226	1228	1246	1264	1289	1299	1287	1275	1269	1299	1334	1372	1411	1506	1536	1599	1657	1766	1837	1912	2018	2058	2090	2110	2069	2075	2105	2150	2173	2208	2236	2295	2343	2333	2254	2226	2199	2197	2135	2106	2081	2037	2000	1961	1931	1921	1939	1937	1935	1907	1899	1932	2007	2059	2114	2238	2279	2266	2252	2211	2204	2198	2178	2137	2138	2134	2153	2159	2127	2092	2023	1981	1938	1846	1803	1771	1744	1676	1638	1595	1490	1426	1376	1318	1212	1237	1263	1291	1303	1315	1302	1270	1264	1256	1229	1206	1207	1207	1211	1215	1223	1228	1232	1237	1243	1256	1267	1276	1291	1306	1334	1350	1352	1354	1362	1369	1379	1385	1390	1407	1436	1473	1516	1595	1646	1706	1809	1860	1897	1931	1993	2031	2076	2140	2181	2222	2269	2376	2426	2448	2507	2561	2591	2613	2678	2721	2806	301	303	303	301	301	300	2973	2907	2899	2884	2874	2889	2870	2846	2811	2757	2742	2733	2726	2719	2712	2703	2683	-9999	-9999	-9999	-9999	-9999	-9999	-9999	-9999	-9999	-9999	-9999	-9999	-9999	-9999	-9999	-9999	-9999	-9999	-9999	-9999	-9999	-9999	-9999	-9999	-9999	-9999	-9999	-9999	-9999	-9999	-9999	-9999	-9999	-9999	-9999	-9999	-9999	-9999	-9999	-9999	-9999	-9999	-9999	-9999	-9999	-9999	-9999	-9999	-9999	-9999	-9999	-9999	-9999	-9999	-9999	-9999	-9999	-9999	-9999	-9999	-9999	-9999	-9999	-9999	-9999	-9999	-9999	-9999	-9999	-9999	-9999	-9999	-9999	-9999	-9999	-9999	-9999	-9999	-9999	-9999	-9999	-9999	-9999	-9999	-9999	-9999	-9999	-9999	-9999	-9999	-9999	-9999	-9999	-9999	-9999	-9999	-9999	-9999	-9999	-9999	-9999	-9999	-9999	-9999	-9999	-9999	-9999	-9999	-9999	-9999	-9999	-9999	-9999	-9999	-9999	-9999	-9999	-9999	-9999	-9999	-9999	-9999	-9999	-9999	-9999	-9999	-9999	-9999	-9999	-9999	-9999	-9999	-9999	-9999	-9999	-9999	-9999	-9999	-9999	-9999	-9999	-9999	-9999	-9999	-9999	-9999	-9999	-9999	-9999	-9999	-9999	-9999	-9999	-9999	-9999	-9999	-9999	-9999	-9999	-9999	-9999	-9999	-9999	-9999	-9999	-9999	-9999	-9999	-9999	-9999	-9999	-9999	-9999	-9999	-9999	-9999	-9999	-9999	-9999	-9999	-9999	-9999	-9999	-9999	-9999	-9999	-9999	-9999	-9999	-9999	-9999	-9999	-9999	-9999	-9999	-9999
1647	1632	1592	1498	1455	1422	1412	1457	1509	1577	1642	1644	1685	1784	1820	1858	1898	1955	1963	1972	2019	2053	2076	2105	2149	2162	2191	2213	2193	2185	2170	2168	2181	2204	2286	2236	2246	2288	2341	2359	2378	2415	2405	2429	2472	2431	2387	2357	2329	2262	2220	2177	2124	2143	2152	2095	2110	2090	2130	2174	2138	2094	2051	1975	1937	1906	1855	1827	1792	1739	1665	1652	1630	1591	1569	1547	1534	1476	1456	1471	1435	1427	1429	1429	1394	1382	1377	1356	1347	1343	1340	1373	1389	1407	1453	1495	1546	1600	1704	1748	1802	1835	1879	1887	1899	1956	1984	1998	2012	2047	2087	2140	2218	2243	2337	2436	2273	2208	2177	2078	2036	1998	1963	1883	1819	1771	1687	1667	1690	1719	1685	1646	1603	1514	1465	1406	1372	1395	1379	1348	1291	1270	1263	1257	1232	1214	1204	1198	1256	1306	1357	1449	1470	1480	1498	1556	1597	1599	1495	1463	1490	1527	1659	1725	1785	1852	1877	1906	1940	1935	1907	1877	1823	1798	1780	1765	1709	1678	1650	1580	1532	1490	1444	1359	1319	1267	1142	1095	1050	1010	929	896	846	804	719	718	721	734	747	769	781	860	912	946	1042	1082	1118	1151	1216	1230	1240	1204	1201	1175	1219	1143	1158	1159	1186	1211	1239	1249	1247	1258	1278	1326	1360	1402	1453	1555	1602	1653	1771	1832	1888	1949	2041	2068	2101	2137	2107	2099	2132	2195	2212	2244	2277	2354	2341	2310	2240	2216	2189	2165	2076	2049	2025	1976	1941	1932	1897	1901	1905	1908	1891	1865	1870	1904	1980	2026	2088	2219	2271	2290	2277	2257	2249	2243	2198	2193	2171	2137	2172	2153	2128	2055	2016	1976	1931	1825	1777	1743	1713	1651	1610	1570	1466	1405	1343	1290	1197	1182	1202	1206	1216	1262	1253	1213	1214	1213	1201	1192	1193	1198	1216	1223	1225	1233	1245	1248	1250	1279	1316	1329	1378	1403	1426	1403	1388	1379	1368	1381	1386	1391	1396	1411	1430	1462	1531	1571	1615	1674	1782	1815	1860	1899	1978	2016	2059	2147	2197	2236	2277	2370	2399	2410	2493	2564	2599	2611	2652	2694	2800	2999	305	304	303	2986	2968	2968	2982	2996	300	2952	2934	2897	2848	2808	2786	2767	2754	2740	2734	2727	2700	-9999	-9999	-9999	-9999	-9999	-9999	-9999	-9999	-9999	-9999	-9999	-9999	-9999	-9999	-9999	-9999	-9999	-9999	-9999	-9999	-9999	-9999	-9999	-9999	-9999	-9999	-9999	-9999	-9999	-9999	-9999	-9999	-9999	-9999	-9999	-9999	-9999	-9999	-9999	-9999	-9999	-9999	-9999	-9999	-9999	-9999	-9999	-9999	-9999	-9999	-9999	-9999	-9999	-9999	-9999	-9999	-9999	-9999	-9999	-9999	-9999	-9999	-9999	-9999	-9999	-9999	-9999	-9999	-9999	-9999	-9999	-9999	-9999	-9999	-9999	-9999	-9999	-9999	-9999	-9999	-9999	-9999	-9999	-9999	-9999	-9999	-9999	-9999	-9999	-9999	-9999	-9999	-9999	-9999	-9999	-9999	-9999	-9999	-9999	-9999	-9999	-9999	-9999	-9999	-9999	-9999	-9999	-9999	-9999	-9999	-9999	-9999	-9999	-9999	-9999	-9999	-9999	-9999	-9999	-9999	-9999	-9999	-9999	-9999	-9999	-9999	-9999	-9999	-9999	-9999	-9999	-9999	-9999	-9999	-9999	-9999	-9999	-9999	-9999	-9999	-9999	-9999	-9999	-9999	-9999	-9999	-9999	-9999	-9999	-9999	-9999	-9999	-9999	-9999	-9999	-9999	-9999	-9999	-9999	-9999	-9999	-9999	-9999	-9999	-9999	-9999	-9999	-9999	-9999	-9999	-9999	-9999	-9999	-9999	-9999	-9999	-9999	-9999	-9999	-9999	-9999	-9999	-9999	-9999	-9999	-9999	-9999	-9999	-9999	-9999	-9999	-9999	-9999	-9999	-9999	-9999	-9999
1597	1601	1521	1475	1426	1390	1430	1484	1550	1642	1669	1698	1736	1807	1838	1872	1896	1967	1990	2009	2057	2085	2109	2132	2130	2131	2156	2161	2140	2128	2128	2166	2188	2221	2238	2182	2170	2211	2255	2254	2337	2371	2370	2389	2400	2434	2387	2355	2290	2257	2218	2177	2093	2084	2087	1993	2001	1981	2038	2093	2116	2123	2104	2010	1955	1918	1865	1843	1818	1769	1683	1658	1637	1598	1575	1562	1549	1512	1501	1506	1534	1521	1499	1487	1478	1421	1410	1382	1358	1334	1337	1373	1388	1405	1453	1486	1527	1572	1675	1725	1778	1866	1914	1950	1956	1989	2020	2050	2042	2056	2097	2137	2230	2257	2291	2340	2259	2190	2150	2073	2031	1986	1945	1872	1831	1790	1691	1634	1589	1593	1674	1650	1620	1532	1482	1431	1371	1332	1329	1309	1261	1243	1241	1239	1216	1214	1229	1305	1350	1408	1461	1554	1588	1540	1546	1586	1626	1621	1514	1489	1521	1568	1678	1734	1787	1884	1912	1940	1969	1989	1955	1912	1867	1843	1815	1776	1727	1697	1667	1601	1556	1513	1464	1375	1339	1297	1176	1121	1069	1026	949	915	884	804	760	717	716	726	738	750	806	848	906	948	1038	1075	1110	1143	1204	1207	1199	1141	1110	1079	1052	1077	1111	1137	1181	1202	1228	1211	1251	1277	1307	1363	1399	1454	1508	1610	1652	1689	1800	1858	1914	1969	2060	2086	2118	2152	2140	2117	2138	2263	2280	2301	2376	2361	2313	2290	2232	2214	2191	2122	2072	2028	2001	1948	1917	1884	1856	1835	1842	1838	1819	1819	1850	1881	1957	2014	2084	2193	2244	2295	2307	2286	2279	2267	2196	2188	2167	2133	2082	2065	2070	1984	1935	1903	1909	1804	1756	1722	1656	1623	1585	1545	1439	1380	1322	1228	1186	1170	1179	1178	1180	1180	1176	1170	1171	1175	1183	1185	1191	1199	1243	1253	1254	1262	1276	1288	1289	1334	1359	1378	1434	1457	1475	1507	1506	1489	1456	1419	1407	1403	1405	1421	1432	1456	1517	1551	1592	1654	1769	1816	1859	1936	1975	2016	2060	2153	2202	2252	2285	2312	2350	2387	2503	2568	2608	2620	2651	2703	2795	300	305	304	302	2965	2953	2950	2959	2955	2946	2917	2878	2862	2847	2832	2811	2787	2771	2746	2740	2733	-9999	-9999	-9999	-9999	-9999	-9999	-9999	-9999	-9999	-9999	-9999	-9999	-9999	-9999	-9999	-9999	-9999	-9999	-9999	-9999	-9999	-9999	-9999	-9999	-9999	-9999	-9999	-9999	-9999	-9999	-9999	-9999	-9999	-9999	-9999	-9999	-9999	-9999	-9999	-9999	-9999	-9999	-9999	-9999	-9999	-9999	-9999	-9999	-9999	-9999	-9999	-9999	-9999	-9999	-9999	-9999	-9999	-9999	-9999	-9999	-9999	-9999	-9999	-9999	-9999	-9999	-9999	-9999	-9999	-9999	-9999	-9999	-9999	-9999	-9999	-9999	-9999	-9999	-9999	-9999	-9999	-9999	-9999	-9999	-9999	-9999	-9999	-9999	-9999	-9999	-9999	-9999	-9999	-9999	-9999	-9999	-9999	-9999	-9999	-9999	-9999	-9999	-9999	-9999	-9999	-9999	-9999	-9999	-9999	-9999	-9999	-9999	-9999	-9999	-9999	-9999	-9999	-9999	-9999	-9999	-9999	-9999	-9999	-9999	-9999	-9999	-9999	-9999	-9999	-9999	-9999	-9999	-9999	-9999	-9999	-9999	-9999	-9999	-9999	-9999	-9999	-9999	-9999	-9999	-9999	-9999	-9999	-9999	-9999	-9999	-9999	-9999	-9999	-9999	-9999	-9999	-9999	-9999	-9999	-9999	-9999	-9999	-9999	-9999	-9999	-9999	-9999	-9999	-9999	-9999	-9999	-9999	-9999	-9999	-9999	-9999	-9999	-9999	-9999	-9999	-9999	-9999	-9999	-9999	-9999	-9999	-9999	-9999	-9999	-9999	-9999	-9999	-9999	-9999	-9999	-9999	-9999	-9999
1482	1540	1476	1433	1388	1365	1445	1509	1583	1654	1680	1709	1742	1806	1833	1858	1898	1924	1954	1983	2037	2057	2072	2069	2098	2104	2122	2114	2094	2098	2112	2162	2203	2253	2209	2157	2135	2171	2180	2215	2258	2285	2266	2283	2301	2328	2381	2352	2286	2245	2201	2149	2065	2023	1993	1928	1918	1917	1980	2041	2070	2090	2093	2045	1983	1950	1899	1880	1860	1752	1710	1678	1649	1612	1595	1583	1575	1565	1565	1567	1601	1599	1587	1568	1518	1501	1480	1403	1362	1330	1331	1371	1389	1406	1451	1483	1526	1570	1664	1707	1754	1858	1911	1952	1971	2022	2048	2081	2103	2116	2123	2150	2229	2257	2268	2328	2251	2181	2138	2069	2025	1984	1904	1864	1820	1772	1688	1641	1589	1543	1597	1607	1578	1502	1451	1407	1357	1298	1286	1271	1246	1234	1222	1221	1230	1261	1289	1368	1414	1470	1530	1611	1646	1660	1643	1641	1671	1652	1577	1530	1530	1639	1703	1773	1818	1912	1946	1973	2021	2016	1982	1942	1888	1861	1834	1804	1758	1733	1702	1633	1603	1564	1491	1399	1359	1316	1197	1145	1089	1042	963	928	897	831	783	733	713	719	723	733	776	834	883	944	1038	1068	1097	1162	1183	1171	1148	1078	1038	1015	1090	1133	1170	1213	1253	1280	1309	1331	1365	1388	1410	1494	1547	1530	1568	1651	1699	1737	1835	1885	1934	1992	2078	2098	2132	2149	2121	2073	2094	2149	2177	2217	2271	2273	2269	2253	2211	2190	2180	2113	2091	2047	1997	1931	1896	1863	1813	1813	1814	1809	1799	1817	1840	1907	1952	1999	2050	2136	2217	2272	2322	2315	2288	2252	2188	2187	2167	2136	2082	2046	2035	1963	1909	1859	1824	1757	1718	1688	1613	1572	1535	1524	1412	1354	1299	1214	1181	1159	1157	1159	1160	1157	1162	1165	1168	1172	1194	1218	1238	1290	1311	1328	1339	1351	1312	1330	1348	1439	1459	1448	1510	1557	1581	1599	1619	1591	1546	1466	1446	1430	1419	1431	1444	1462	1520	1567	1587	1664	1775	1814	1853	1937	1975	2016	2056	2138	2182	2233	2288	2311	2349	2390	2497	2577	2650	2673	2689	2720	2813	300	304	301	2963	2951	2943	2938	2947	2943	2922	2872	2876	2862	2855	2831	2816	2809	2801	2768	2759	2748	-9999	-9999	-9999	-9999	-9999	-9999	-9999	-9999	-9999	-9999	-9999	-9999	-9999	-9999	-9999	-9999	-9999	-9999	-9999	-9999	-9999	-9999	-9999	-9999	-9999	-9999	-9999	-9999	-9999	-9999	-9999	-9999	-9999	-9999	-9999	-9999	-9999	-9999	-9999	-9999	-9999	-9999	-9999	-9999	-9999	-9999	-9999	-9999	-9999	-9999	-9999	-9999	-9999	-9999	-9999	-9999	-9999	-9999	-9999	-9999	-9999	-9999	-9999	-9999	-9999	-9999	-9999	-9999	-9999	-9999	-9999	-9999	-9999	-9999	-9999	-9999	-9999	-9999	-9999	-9999	-9999	-9999	-9999	-9999	-9999	-9999	-9999	-9999	-9999	-9999	-9999	-9999	-9999	-9999	-9999	-9999	-9999	-9999	-9999	-9999	-9999	-9999	-9999	-9999	-9999	-9999	-9999	-9999	-9999	-9999	-9999	-9999	-9999	-9999	-9999	-9999	-9999	-9999	-9999	-9999	-9999	-9999	-9999	-9999	-9999	-9999	-9999	-9999	-9999	-9999	-9999	-9999	-9999	-9999	-9999	-9999	-9999	-9999	-9999	-9999	-9999	-9999	-9999	-9999	-9999	-9999	-9999	-9999	-9999	-9999	-9999	-9999	-9999	-9999	-9999	-9999	-9999	-9999	-9999	-9999	-9999	-9999	-9999	-9999	-9999	-9999	-9999	-9999	-9999	-9999	-9999	-9999	-9999	-9999	-9999	-9999	-9999	-9999	-9999	-9999	-9999	-9999	-9999	-9999	-9999	-9999	-9999	-9999	-9999	-9999	-9999	-9999	-9999	-9999	-9999	-9999	-9999	-9999
1453	1435	1387	1353	1330	1375	1466	1536	1596	1652	1676	1702	1733	1785	1816	1842	1876	1900	1928	1955	2006	2017	2029	2014	2009	2011	2022	2050	2058	2092	2133	2171	2223	2276	2169	2123	2092	2122	2125	2180	2212	2232	2221	2243	2260	2276	2290	2314	2258	2194	2141	2093	1989	1982	1957	1886	1855	1868	1915	1985	2024	2064	2104	2070	2029	2000	1940	1909	1887	1842	1801	1773	1743	1704	1686	1617	1618	1622	1623	1624	1665	1656	1639	1585	1543	1507	1483	1399	1353	1324	1336	1369	1390	1417	1465	1496	1542	1591	1673	1713	1755	1855	1900	1940	1966	2025	2055	2095	2128	2145	2144	2160	2247	2231	2198	2265	2287	2205	2136	2050	2009	1981	1906	1866	1820	1773	1673	1630	1587	1498	1523	1556	1542	1469	1421	1382	1296	1272	1263	1255	1235	1230	1257	1242	1290	1311	1351	1429	1492	1559	1635	1679	1700	1714	1699	1689	1694	1667	1621	1619	1613	1652	1711	1772	1840	1970	1977	2011	2051	2042	2008	1971	1916	1883	1853	1791	1770	1748	1724	1658	1631	1592	1510	1457	1402	1357	1234	1181	1112	1057	977	944	917	844	801	758	718	713	713	715	757	821	869	931	1025	1049	1064	1108	1108	1087	1058	1021	993	1038	1160	1213	1255	1286	1311	1333	1365	1406	1428	1456	1478	1551	1600	1638	1714	1740	1776	1810	1895	1944	1966	2018	2090	2109	2133	2123	2085	2026	2035	2077	2109	2134	2195	2213	2230	2238	2147	2126	2117	2058	2028	2010	2007	1916	1873	1841	1792	1793	1799	1796	1799	1825	1862	1929	1968	2004	2034	2111	2170	2234	2287	2239	2203	2182	2140	2153	2132	2090	2067	2038	2017	1949	1903	1848	1792	1714	1683	1649	1575	1534	1492	1450	1354	1306	1259	1189	1165	1156	1148	1150	1152	1155	1160	1163	1169	1179	1217	1246	1276	1332	1355	1374	1382	1400	1422	1481	1543	1591	1616	1615	1626	1679	1706	1711	1706	1684	1634	1530	1502	1478	1452	1449	1448	1472	1553	1595	1636	1687	1800	1854	1896	1967	1999	2011	2047	2134	2175	2224	2307	2332	2365	2403	2499	2557	2649	2701	2719	2740	2831	301	2975	2942	2938	2934	2928	2932	2943	2946	2906	2858	2879	2861	2859	2836	2825	2826	2794	2773	2765	-9999	-9999	-9999	-9999	-9999	-9999	-9999	-9999	-9999	-9999	-9999	-9999	-9999	-9999	-9999	-9999	-9999	-9999	-9999	-9999	-9999	-9999	-9999	-9999	-9999	-9999	-9999	-9999	-9999	-9999	-9999	-9999	-9999	-9999	-9999	-9999	-9999	-9999	-9999	-9999	-9999	-9999	-9999	-9999	-9999	-9999	-9999	-9999	-9999	-9999	-9999	-9999	-9999	-9999	-9999	-9999	-9999	-9999	-9999	-9999	-9999	-9999	-9999	-9999	-9999	-9999	-9999	-9999	-9999	-9999	-9999	-9999	-9999	-9999	-9999	-9999	-9999	-9999	-9999	-9999	-9999	-9999	-9999	-9999	-9999	-9999	-9999	-9999	-9999	-9999	-9999	-9999	-9999	-9999	-9999	-9999	-9999	-9999	-9999	-9999	-9999	-9999	-9999	-9999	-9999	-9999	-9999	-9999	-9999	-9999	-9999	-9999	-9999	-9999	-9999	-9999	-9999	-9999	-9999	-9999	-9999	-9999	-9999	-9999	-9999	-9999	-9999	-9999	-9999	-9999	-9999	-9999	-9999	-9999	-9999	-9999	-9999	-9999	-9999	-9999	-9999	-9999	-9999	-9999	-9999	-9999	-9999	-9999	-9999	-9999	-9999	-9999	-9999	-9999	-9999	-9999	-9999	-9999	-9999	-9999	-9999	-9999	-9999	-9999	-9999	-9999	-9999	-9999	-9999	-9999	-9999	-9999	-9999	-9999	-9999	-9999	-9999	-9999	-9999	-9999	-9999	-9999	-9999	-9999	-9999	-9999	-9999	-9999	-9999	-9999	-9999	-9999	-9999	-9999	-9999	-9999	-9999	-9999	-9999
1424	1403	1350	1311	1333	1414	1466	1518	1564	1610	1631	1655	1681	1738	1791	1816	1858	1880	1903	1926	1971	1973	1980	1946	1947	1956	1974	2012	2029	2067	2168	2216	2230	2180	2090	2035	2009	2068	2092	2139	2161	2174	2181	2213	2235	2234	2253	2291	2259	2184	2124	2021	1976	1937	1901	1811	1776	1798	1820	1943	1980	2020	2081	2079	2043	2022	1956	1916	1891	1857	1851	1847	1817	1758	1744	1735	1699	1679	1668	1653	1609	1579	1627	1577	1532	1483	1451	1379	1339	1321	1355	1370	1389	1417	1474	1507	1547	1627	1666	1713	1756	1857	1906	1942	1963	2021	2055	2093	2177	2180	2171	2172	2257	2210	2169	2229	2260	2197	2135	2046	2004	1967	1893	1853	1814	1770	1686	1622	1576	1489	1456	1490	1502	1433	1388	1351	1276	1256	1250	1245	1232	1252	1289	1365	1419	1447	1453	1535	1598	1704	1749	1771	1774	1769	1760	1735	1718	1694	1657	1664	1655	1667	1717	1785	1862	1989	2041	2077	2103	2081	2043	1996	1940	1906	1877	1809	1786	1764	1742	1683	1653	1617	1537	1490	1429	1375	1251	1190	1147	1069	1038	1005	958	837	804	764	715	713	713	711	750	807	856	905	1015	1033	1044	1072	1062	1040	1008	977	1044	1111	1218	1267	1292	1299	1317	1333	1366	1413	1447	1491	1527	1581	1617	1642	1714	1744	1788	1820	1901	1947	1992	2068	2089	2106	2115	2051	2046	1987	1998	2028	2045	2066	2116	2155	2165	2194	2133	2098	2086	2026	2000	1969	1944	1879	1842	1811	1755	1756	1769	1789	1808	1834	1870	1946	1980	2008	2033	2107	2159	2231	2274	2221	2186	2172	2132	2098	2062	2011	1986	1973	1955	1921	1880	1837	1738	1683	1635	1601	1522	1490	1452	1367	1326	1282	1240	1175	1155	1145	1143	1148	1151	1152	1189	1217	1200	1218	1257	1284	1323	1372	1402	1415	1421	1447	1477	1541	1597	1643	1695	1736	1834	1879	1901	1874	1882	1868	1827	1634	1583	1529	1498	1496	1484	1498	1578	1612	1644	1741	1803	1866	1932	2014	2046	2077	2102	2171	2217	2277	2377	2349	2389	2427	2530	2579	2663	2735	2745	2773	2862	2999	2947	2922	2936	2927	2928	2928	2978	2946	2846	2881	2871	2866	2861	2844	2835	2835	2801	2784	-9999	-9999	-9999	-9999	-9999	-9999	-9999	-9999	-9999	-9999	-9999	-9999	-9999	-9999	-9999	-9999	-9999	-9999	-9999	-9999	-9999	-9999	-9999	-9999	-9999	-9999	-9999	-9999	-9999	-9999	-9999	-9999	-9999	-9999	-9999	-9999	-9999	-9999	-9999	-9999	-9999	-9999	-9999	-9999	-9999	-9999	-9999	-9999	-9999	-9999	-9999	-9999	-9999	-9999	-9999	-9999	-9999	-9999	-9999	-9999	-9999	-9999	-9999	-9999	-9999	-9999	-9999	-9999	-9999	-9999	-9999	-9999	-9999	-9999	-9999	-9999	-9999	-9999	-9999	-9999	-9999	-9999	-9999	-9999	-9999	-9999	-9999	-9999	-9999	-9999	-9999	-9999	-9999	-9999	-9999	-9999	-9999	-9999	-9999	-9999	-9999	-9999	-9999	-9999	-9999	-9999	-9999	-9999	-9999	-9999	-9999	-9999	-9999	-9999	-9999	-9999	-9999	-9999	-9999	-9999	-9999	-9999	-9999	-9999	-9999	-9999	-9999	-9999	-9999	-9999	-9999	-9999	-9999	-9999	-9999	-9999	-9999	-9999	-9999	-9999	-9999	-9999	-9999	-9999	-9999	-9999	-9999	-9999	-9999	-9999	-9999	-9999	-9999	-9999	-9999	-9999	-9999	-9999	-9999	-9999	-9999	-9999	-9999	-9999	-9999	-9999	-9999	-9999	-9999	-9999	-9999	-9999	-9999	-9999	-9999	-9999	-9999	-9999	-9999	-9999	-9999	-9999	-9999	-9999	-9999	-9999	-9999	-9999	-9999	-9999	-9999	-9999	-9999	-9999	-9999	-9999	-9999	-9999	-9999	-9999
1394	1383	1314	1286	1320	1401	1452	1493	1532	1579	1609	1639	1687	1713	1734	1757	1806	1827	1851	1879	1869	1914	1912	1895	1907	1921	1942	2011	2025	2057	2164	2208	2185	2136	2045	2000	1969	1980	2006	2033	2039	2070	2121	2180	2218	2215	2233	2270	2268	2189	2125	2015	1972	1932	1889	1797	1743	1768	1784	1818	1856	1894	1990	2007	1965	1912	1952	1910	1873	1813	1824	1841	1840	1779	1750	1722	1647	1624	1619	1588	1526	1503	1478	1453	1425	1380	1347	1313	1321	1321	1356	1371	1387	1411	1479	1515	1551	1632	1672	1708	1748	1830	1880	1943	2001	2025	2058	2091	2170	2216	2242	2217	2252	2211	2157	2178	2200	2167	2117	2039	1999	1964	1891	1856	1816	1784	1715	1668	1608	1491	1434	1376	1386	1399	1358	1316	1253	1244	1239	1236	1252	1285	1328	1386	1451	1504	1528	1573	1620	1720	1894	1931	1941	1926	1839	1819	1745	1701	1699	1703	1697	1705	1736	1796	1948	2008	2065	2108	2129	2100	2052	2012	1972	1943	1915	1849	1820	1792	1769	1700	1673	1642	1558	1514	1448	1380	1278	1245	1195	1110	1070	1035	989	876	836	795	734	719	709	708	731	796	840	942	995	1014	1020	1035	1020	994	943	1001	1067	1127	1212	1257	1283	1287	1293	1300	1326	1396	1437	1484	1544	1587	1611	1632	1701	1739	1784	1827	1899	1942	1989	2066	2087	2103	2098	2005	1963	1916	1862	1903	1926	1939	2085	2102	2113	2152	2120	2076	2062	1998	1964	1937	1879	1847	1818	1787	1733	1736	1748	1748	1820	1860	1896	1986	2022	2026	2050	2120	2174	2233	2246	2193	2170	2169	2129	2095	2064	2009	1972	1942	1929	1873	1831	1796	1720	1678	1630	1588	1497	1454	1416	1338	1299	1261	1223	1161	1145	1142	1144	1147	1148	1158	1229	1264	1299	1363	1387	1427	1450	1478	1450	1464	1478	1510	1541	1600	1669	1686	1744	1807	1896	1969	1990	1952	1979	1974	1928	1833	1792	1754	1657	1631	1621	1559	1595	1619	1647	1737	1795	1865	1940	2050	2093	2137	2221	2264	2301	2335	2369	2384	2411	2480	2517	2553	2602	2707	2795	2839	2996	2976	2937	2923	2935	2926	2930	2933	2989	2925	2826	2888	2875	2875	2874	2857	2853	2840	2807	-9999	-9999	-9999	-9999	-9999	-9999	-9999	-9999	-9999	-9999	-9999	-9999	-9999	-9999	-9999	-9999	-9999	-9999	-9999	-9999	-9999	-9999	-9999	-9999	-9999	-9999	-9999	-9999	-9999	-9999	-9999	-9999	-9999	-9999	-9999	-9999	-9999	-9999	-9999	-9999	-9999	-9999	-9999	-9999	-9999	-9999	-9999	-9999	-9999	-9999	-9999	-9999	-9999	-9999	-9999	-9999	-9999	-9999	-9999	-9999	-9999	-9999	-9999	-9999	-9999	-9999	-9999	-9999	-9999	-9999	-9999	-9999	-9999	-9999	-9999	-9999	-9999	-9999	-9999	-9999	-9999	-9999	-9999	-9999	-9999	-9999	-9999	-9999	-9999	-9999	-9999	-9999	-9999	-9999	-9999	-9999	-9999	-9999	-9999	-9999	-9999	-9999	-9999	-9999	-9999	-9999	-9999	-9999	-9999	-9999	-9999	-9999	-9999	-9999	-9999	-9999	-9999	-9999	-9999	-9999	-9999	-9999	-9999	-9999	-9999	-9999	-9999	-9999	-9999	-9999	-9999	-9999	-9999	-9999	-9999	-9999	-9999	-9999	-9999	-9999	-9999	-9999	-9999	-9999	-9999	-9999	-9999	-9999	-9999	-9999	-9999	-9999	-9999	-9999	-9999	-9999	-9999	-9999	-9999	-9999	-9999	-9999	-9999	-9999	-9999	-9999	-9999	-9999	-9999	-9999	-9999	-9999	-9999	-9999	-9999	-9999	-9999	-9999	-9999	-9999	-9999	-9999	-9999	-9999	-9999	-9999	-9999	-9999	-9999	-9999	-9999	-9999	-9999	-9999	-9999	-9999	-9999	-9999	-9999	-9999	-9999
1324	1338	1280	1235	1252	1377	1427	1467	1498	1553	1585	1622	1665	1691	1708	1724	1769	1797	1824	1837	1823	1816	1820	1863	1878	1909	1968	2001	2033	2073	2170	2205	2178	2075	2018	1969	1945	1929	1947	1957	1982	2039	2087	2127	2166	2194	2236	2287	2298	2212	2128	2020	1978	1928	1870	1777	1708	1732	1740	1756	1793	1835	1944	1954	1922	1826	1823	1807	1777	1684	1723	1727	1779	1733	1685	1666	1577	1566	1554	1507	1470	1439	1419	1391	1371	1342	1314	1307	1324	1348	1384	1403	1427	1452	1470	1514	1553	1637	1675	1707	1744	1818	1864	1926	2005	2026	2054	2088	2146	2186	2220	2209	2214	2199	2143	2107	2102	2136	2067	2031	1995	1961	1899	1871	1835	1782	1741	1697	1636	1507	1445	1379	1342	1315	1281	1250	1246	1248	1252	1274	1287	1325	1369	1426	1464	1542	1609	1630	1655	1726	1913	1937	1963	1955	1877	1853	1809	1785	1786	1778	1762	1797	1835	1824	1976	2051	2099	2138	2151	2105	2057	1998	1984	1960	1930	1859	1827	1798	1758	1730	1699	1665	1576	1525	1472	1391	1338	1307	1270	1156	1107	1057	1003	917	863	814	742	717	711	709	721	760	796	872	919	955	961	923	959	935	962	1026	1085	1133	1197	1239	1264	1276	1280	1280	1307	1374	1417	1460	1519	1553	1581	1607	1674	1733	1787	1830	1891	1927	1975	2058	2081	2098	2087	1967	1920	1875	1798	1835	1856	1894	1961	1993	2000	2076	2078	2061	2042	1982	1947	1918	1842	1809	1786	1755	1706	1715	1723	1772	1820	1865	1908	2011	2048	2081	2150	2191	2241	2248	2269	2223	2172	2174	2118	2087	2058	1997	1959	1927	1893	1854	1812	1771	1686	1646	1597	1556	1454	1406	1365	1287	1247	1216	1205	1148	1139	1140	1143	1146	1149	1180	1269	1311	1350	1430	1469	1525	1567	1558	1580	1584	1604	1635	1683	1725	1820	1756	1778	1913	1943	2038	2088	2054	2076	2068	2023	1904	1860	1809	1734	1703	1666	1636	1626	1635	1643	1715	1777	1857	1935	2046	2097	2147	2235	2265	2280	2286	2321	2348	2378	2442	2478	2513	2551	2634	2690	2757	2918	2951	2938	2927	2935	2930	2932	2980	2982	2884	2827	2894	2888	2888	2892	2880	2866	2857	-9999	-9999	-9999	-9999	-9999	-9999	-9999	-9999	-9999	-9999	-9999	-9999	-9999	-9999	-9999	-9999	-9999	-9999	-9999	-9999	-9999	-9999	-9999	-9999	-9999	-9999	-9999	-9999	-9999	-9999	-9999	-9999	-9999	-9999	-9999	-9999	-9999	-9999	-9999	-9999	-9999	-9999	-9999	-9999	-9999	-9999	-9999	-9999	-9999	-9999	-9999	-9999	-9999	-9999	-9999	-9999	-9999	-9999	-9999	-9999	-9999	-9999	-9999	-9999	-9999	-9999	-9999	-9999	-9999	-9999	-9999	-9999	-9999	-9999	-9999	-9999	-9999	-9999	-9999	-9999	-9999	-9999	-9999	-9999	-9999	-9999	-9999	-9999	-9999	-9999	-9999	-9999	-9999	-9999	-9999	-9999	-9999	-9999	-9999	-9999	-9999	-9999	-9999	-9999	-9999	-9999	-9999	-9999	-9999	-9999	-9999	-9999	-9999	-9999	-9999	-9999	-9999	-9999	-9999	-9999	-9999	-9999	-9999	-9999	-9999	-9999	-9999	-9999	-9999	-9999	-9999	-9999	-9999	-9999	-9999	-9999	-9999	-9999	-9999	-9999	-9999	-9999	-9999	-9999	-9999	-9999	-9999	-9999	-9999	-9999	-9999	-9999	-9999	-9999	-9999	-9999	-9999	-9999	-9999	-9999	-9999	-9999	-9999	-9999	-9999	-9999	-9999	-9999	-9999	-9999	-9999	-9999	-9999	-9999	-9999	-9999	-9999	-9999	-9999	-9999	-9999	-9999	-9999	-9999	-9999	-9999	-9999	-9999	-9999	-9999	-9999	-9999	-9999	-9999	-9999	-9999	-9999	-9999	-9999	-9999	-9999	-9999
1268	1297	1274	1225	1222	1313	1366	1394	1430	1510	1540	1602	1645	1667	1685	1693	1739	1770	1795	1799	1780	1784	1809	1872	1898	1926	1987	2029	2074	2105	2144	2150	2132	2041	2004	1951	1917	1893	1894	1903	1964	2016	2055	2086	2147	2201	2262	2316	2280	2241	2152	2035	1990	1943	1903	1715	1682	1685	1695	1721	1754	1796	1890	1879	1855	1764	1743	1730	1725	1626	1662	1661	1614	1614	1579	1531	1467	1445	1425	1456	1428	1379	1375	1343	1327	1305	1302	1325	1348	1375	1417	1444	1473	1508	1502	1515	1554	1625	1658	1686	1718	1810	1858	1916	2007	2024	2052	2083	2139	2165	2194	2196	2191	2168	2124	2084	2071	2102	2114	2037	1994	1967	1916	1891	1857	1808	1771	1723	1650	1500	1427	1367	1306	1286	1263	1250	1263	1262	1269	1328	1360	1409	1463	1567	1574	1572	1647	1705	1706	1723	1906	1937	1974	1988	1925	1877	1839	1812	1812	1803	1787	1845	1878	1916	1998	2067	2129	2184	2133	2097	2065	2023	2002	1976	1944	1870	1837	1801	1757	1733	1700	1659	1575	1530	1514	1434	1389	1342	1287	1187	1125	1075	1010	957	897	844	756	715	713	709	711	741	768	833	882	914	919	863	890	934	1021	1062	1105	1132	1177	1216	1244	1267	1272	1270	1289	1352	1397	1436	1486	1517	1546	1586	1665	1723	1776	1850	1874	1900	1935	2034	2061	2092	2027	1953	1865	1828	1737	1775	1802	1854	1916	1938	1952	2023	2035	2037	2018	1983	1949	1904	1802	1748	1713	1726	1673	1689	1689	1766	1817	1865	1915	2019	2063	2100	2196	2226	2215	2190	2222	2228	2221	2172	2125	2091	2056	1989	1956	1920	1833	1805	1778	1743	1655	1605	1552	1495	1406	1371	1335	1262	1221	1193	1172	1138	1137	1143	1152	1167	1200	1212	1311	1355	1396	1487	1549	1607	1646	1666	1634	1640	1673	1690	1751	1774	1865	1908	1916	2062	2123	2184	2196	2136	2124	2078	1966	1919	1873	1835	1765	1724	1679	1655	1650	1656	1661	1719	1783	1861	1922	2025	2073	2118	2159	2171	2225	2238	2296	2327	2359	2420	2455	2494	2523	2602	2650	2710	2877	2933	2932	2928	2936	2934	2950	2997	2939	2828	2874	2901	2903	2901	2917	2900	2876	2879	-9999	-9999	-9999	-9999	-9999	-9999	-9999	-9999	-9999	-9999	-9999	-9999	-9999	-9999	-9999	-9999	-9999	-9999	-9999	-9999	-9999	-9999	-9999	-9999	-9999	-9999	-9999	-9999	-9999	-9999	-9999	-9999	-9999	-9999	-9999	-9999	-9999	-9999	-9999	-9999	-9999	-9999	-9999	-9999	-9999	-9999	-9999	-9999	-9999	-9999	-9999	-9999	-9999	-9999	-9999	-9999	-9999	-9999	-9999	-9999	-9999	-9999	-9999	-9999	-9999	-9999	-9999	-9999	-9999	-9999	-9999	-9999	-9999	-9999	-9999	-9999	-9999	-9999	-9999	-9999	-9999	-9999	-9999	-9999	-9999	-9999	-9999	-9999	-9999	-9999	-9999	-9999	-9999	-9999	-9999	-9999	-9999	-9999	-9999	-9999	-9999	-9999	-9999	-9999	-9999	-9999	-9999	-9999	-9999	-9999	-9999	-9999	-9999	-9999	-9999	-9999	-9999	-9999	-9999	-9999	-9999	-9999	-9999	-9999	-9999	-9999	-9999	-9999	-9999	-9999	-9999	-9999	-9999	-9999	-9999	-9999	-9999	-9999	-9999	-9999	-9999	-9999	-9999	-9999	-9999	-9999	-9999	-9999	-9999	-9999	-9999	-9999	-9999	-9999	-9999	-9999	-9999	-9999	-9999	-9999	-9999	-9999	-9999	-9999	-9999	-9999	-9999	-9999	-9999	-9999	-9999	-9999	-9999	-9999	-9999	-9999	-9999	-9999	-9999	-9999	-9999	-9999	-9999	-9999	-9999	-9999	-9999	-9999	-9999	-9999	-9999	-9999	-9999	-9999	-9999	-9999	-9999	-9999	-9999	-9999	-9999	-9999
1220	1259	1257	1220	1201	1286	1339	1374	1446	1483	1519	1552	1597	1614	1631	1665	1683	1707	1758	1762	1759	1782	1817	1886	1913	1941	1997	2027	2050	2076	2104	2113	2102	2017	1967	1925	1889	1847	1843	1867	1937	1976	2016	2061	2160	2223	2274	2279	2221	2205	2181	2059	2000	1940	1794	1678	1628	1608	1632	1643	1667	1731	1749	1813	1790	1730	1684	1662	1638	1571	1583	1589	1530	1539	1510	1473	1424	1395	1371	1353	1341	1322	1311	1297	1292	1295	1323	1348	1372	1393	1444	1481	1523	1556	1540	1534	1554	1622	1653	1687	1765	1813	1874	1925	2008	2038	2064	2109	2141	2159	2174	2195	2171	2132	2091	2056	2045	2085	2186	2097	2018	1990	1890	1867	1864	1813	1777	1717	1605	1441	1397	1344	1289	1276	1260	1254	1278	1281	1299	1361	1392	1430	1485	1613	1642	1636	1730	1808	1832	1823	1881	1945	2011	2013	1980	1902	1857	1842	1834	1817	1828	1896	1937	1979	2036	2090	2145	2198	2144	2111	2105	2041	2007	1974	1933	1873	1842	1806	1751	1723	1688	1649	1583	1565	1538	1448	1400	1334	1266	1160	1127	1132	1104	1044	979	919	808	757	712	705	705	731	756	802	843	876	848	873	933	977	1038	1068	1105	1130	1137	1158	1192	1236	1248	1261	1263	1330	1378	1414	1462	1493	1525	1563	1647	1707	1767	1840	1863	1889	1918	1999	2008	2015	1975	1915	1828	1738	1643	1721	1748	1826	1878	1874	1903	1958	1990	2003	1968	1950	1919	1879	1774	1725	1676	1646	1625	1640	1669	1769	1817	1871	1920	2028	2083	2129	2172	2165	2164	2133	2169	2193	2207	2187	2130	2085	2047	1981	1944	1895	1811	1757	1696	1644	1562	1563	1502	1401	1369	1334	1310	1250	1218	1186	1145	1138	1144	1152	1172	1195	1233	1337	1387	1434	1482	1578	1653	1664	1712	1775	1711	1703	1734	1751	1805	1837	1926	1978	2008	2155	2231	2236	2182	2089	2048	2014	1953	1922	1897	1868	1784	1740	1692	1674	1666	1680	1690	1712	1786	1860	1964	2008	2058	2086	2120	2147	2175	2235	2265	2299	2330	2389	2424	2469	2509	2581	2625	2703	2865	2927	2929	2928	2935	2943	2962	2994	2905	2847	2901	2929	2930	2949	2949	2923	2906	-9999	-9999	-9999	-9999	-9999	-9999	-9999	-9999	-9999	-9999	-9999	-9999	-9999	-9999	-9999	-9999	-9999	-9999	-9999	-9999	-9999	-9999	-9999	-9999	-9999	-9999	-9999	-9999	-9999	-9999	-9999	-9999	-9999	-9999	-9999	-9999	-9999	-9999	-9999	-9999	-9999	-9999	-9999	-9999	-9999	-9999	-9999	-9999	-9999	-9999	-9999	-9999	-9999	-9999	-9999	-9999	-9999	-9999	-9999	-9999	-9999	-9999	-9999	-9999	-9999	-9999	-9999	-9999	-9999	-9999	-9999	-9999	-9999	-9999	-9999	-9999	-9999	-9999	-9999	-9999	-9999	-9999	-9999	-9999	-9999	-9999	-9999	-9999	-9999	-9999	-9999	-9999	-9999	-9999	-9999	-9999	-9999	-9999	-9999	-9999	-9999	-9999	-9999	-9999	-9999	-9999	-9999	-9999	-9999	-9999	-9999	-9999	-9999	-9999	-9999	-9999	-9999	-9999	-9999	-9999	-9999	-9999	-9999	-9999	-9999	-9999	-9999	-9999	-9999	-9999	-9999	-9999	-9999	-9999	-9999	-9999	-9999	-9999	-9999	-9999	-9999	-9999	-9999	-9999	-9999	-9999	-9999	-9999	-9999	-9999	-9999	-9999	-9999	-9999	-9999	-9999	-9999	-9999	-9999	-9999	-9999	-9999	-9999	-9999	-9999	-9999	-9999	-9999	-9999	-9999	-9999	-9999	-9999	-9999	-9999	-9999	-9999	-9999	-9999	-9999	-9999	-9999	-9999	-9999	-9999	-9999	-9999	-9999	-9999	-9999	-9999	-9999	-9999	-9999	-9999	-9999	-9999	-9999	-9999	-9999	-9999	-9999	-9999
1127	1207	1224	1201	1179	1255	1305	1356	1417	1455	1491	1521	1563	1578	1604	1647	1668	1682	1698	1706	1744	1781	1841	1862	1905	1937	1983	2007	2028	2060	2065	2070	2070	1995	1955	1923	1888	1835	1831	1857	1926	1975	2029	2076	2162	2196	2260	2261	2193	2142	2123	2041	1985	1917	1751	1646	1601	1574	1591	1601	1616	1664	1672	1688	1654	1623	1569	1543	1485	1526	1516	1510	1464	1464	1439	1397	1376	1343	1325	1311	1304	1295	1291	1287	1296	1325	1371	1396	1423	1455	1524	1567	1559	1589	1575	1576	1589	1621	1643	1682	1765	1816	1868	1916	2006	2040	2065	2109	2151	2202	2241	2225	2176	2128	2037	2018	2020	2045	2196	2122	2032	1911	1848	1802	1806	1786	1747	1670	1575	1412	1344	1302	1266	1263	1259	1270	1302	1305	1338	1405	1433	1470	1521	1643	1694	1701	1728	1815	1862	1889	1931	1983	2022	2084	2021	1935	1873	1865	1841	1832	1909	1953	1994	2036	2098	2128	2180	2203	2168	2143	2099	2037	2013	1980	1937	1873	1844	1821	1776	1749	1727	1701	1621	1589	1551	1457	1396	1321	1258	1222	1195	1195	1147	1080	1008	942	822	775	729	705	704	721	757	789	808	850	836	897	952	989	1047	1074	1103	1133	1128	1133	1156	1215	1232	1254	1273	1297	1333	1371	1420	1454	1487	1539	1633	1688	1754	1830	1853	1869	1896	1952	1950	1962	1941	1898	1819	1733	1599	1600	1652	1766	1791	1772	1781	1900	1964	1972	1926	1914	1890	1850	1743	1690	1651	1592	1593	1620	1669	1768	1816	1866	1979	2040	2096	2123	2037	2022	2109	2077	2113	2144	2181	2193	2138	2087	2041	1966	1924	1872	1782	1738	1698	1643	1531	1484	1441	1354	1330	1308	1282	1242	1208	1174	1138	1135	1151	1166	1198	1219	1269	1367	1418	1467	1511	1627	1697	1750	1853	1898	1907	1873	1858	1885	1855	1943	2020	2038	2102	2215	2279	2225	2163	2083	2050	2017	1964	1934	1908	1879	1817	1773	1725	1718	1709	1704	1718	1704	1772	1846	1944	1985	2020	2042	2096	2128	2163	2229	2259	2287	2313	2379	2413	2446	2512	2557	2603	2662	2798	2895	2923	2935	2938	2953	2971	2980	2873	2881	2928	2945	2945	2976	2957	2923	-9999	-9999	-9999	-9999	-9999	-9999	-9999	-9999	-9999	-9999	-9999	-9999	-9999	-9999	-9999	-9999	-9999	-9999	-9999	-9999	-9999	-9999	-9999	-9999	-9999	-9999	-9999	-9999	-9999	-9999	-9999	-9999	-9999	-9999	-9999	-9999	-9999	-9999	-9999	-9999	-9999	-9999	-9999	-9999	-9999	-9999	-9999	-9999	-9999	-9999	-9999	-9999	-9999	-9999	-9999	-9999	-9999	-9999	-9999	-9999	-9999	-9999	-9999	-9999	-9999	-9999	-9999	-9999	-9999	-9999	-9999	-9999	-9999	-9999	-9999	-9999	-9999	-9999	-9999	-9999	-9999	-9999	-9999	-9999	-9999	-9999	-9999	-9999	-9999	-9999	-9999	-9999	-9999	-9999	-9999	-9999	-9999	-9999	-9999	-9999	-9999	-9999	-9999	-9999	-9999	-9999	-9999	-9999	-9999	-9999	-9999	-9999	-9999	-9999	-9999	-9999	-9999	-9999	-9999	-9999	-9999	-9999	-9999	-9999	-9999	-9999	-9999	-9999	-9999	-9999	-9999	-9999	-9999	-9999	-9999	-9999	-9999	-9999	-9999	-9999	-9999	-9999	-9999	-9999	-9999	-9999	-9999	-9999	-9999	-9999	-9999	-9999	-9999	-9999	-9999	-9999	-9999	-9999	-9999	-9999	-9999	-9999	-9999	-9999	-9999	-9999	-9999	-9999	-9999	-9999	-9999	-9999	-9999	-9999	-9999	-9999	-9999	-9999	-9999	-9999	-9999	-9999	-9999	-9999	-9999	-9999	-9999	-9999	-9999	-9999	-9999	-9999	-9999	-9999	-9999	-9999	-9999	-9999	-9999	-9999	-9999	-9999	-9999	-9999
1096	1127	1144	1153	1150	1198	1250	1303	1396	1423	1451	1487	1517	1542	1579	1611	1628	1648	1650	1694	1726	1760	1807	1825	1843	1874	1897	1914	1941	1993	2041	2046	2043	1983	1953	1927	1857	1826	1817	1841	1917	1972	2021	2109	2136	2160	2187	2162	2108	2095	2039	1950	1911	1883	1731	1635	1579	1549	1554	1566	1577	1614	1587	1614	1572	1538	1519	1470	1428	1406	1388	1365	1366	1337	1333	1352	1332	1312	1292	1280	1279	1280	1290	1304	1323	1336	1396	1427	1458	1528	1570	1611	1640	1665	1670	1682	1672	1686	1664	1702	1768	1806	1852	1902	1997	2034	2077	2149	2192	2231	2275	2228	2164	2111	2013	1968	1946	1951	2042	2052	1970	1872	1813	1757	1735	1730	1693	1620	1464	1385	1328	1288	1261	1258	1260	1289	1314	1336	1359	1468	1514	1550	1592	1666	1718	1759	1761	1811	1876	1936	1975	2042	2104	2090	2009	1941	1891	1875	1852	1872	1969	2030	2081	2132	2217	2251	2232	2217	2181	2137	2083	2032	2015	1974	1912	1886	1860	1839	1798	1772	1745	1671	1630	1588	1541	1431	1376	1347	1299	1304	1269	1246	1177	1109	1035	973	855	802	753	706	703	726	755	780	785	786	881	925	960	994	1039	1071	1094	1124	1120	1115	1126	1192	1214	1239	1254	1275	1301	1343	1403	1440	1471	1551	1603	1655	1718	1816	1837	1848	1901	1902	1890	1908	1913	1865	1794	1715	1572	1555	1607	1717	1726	1706	1745	1861	1912	1920	1845	1808	1787	1768	1714	1661	1619	1555	1572	1616	1666	1769	1816	1865	1981	2040	2079	2064	1995	1962	1979	1976	2019	2067	2116	2131	2102	2085	1983	1945	1906	1863	1762	1719	1678	1636	1544	1493	1433	1326	1299	1280	1263	1216	1179	1146	1121	1131	1149	1174	1220	1242	1293	1392	1443	1484	1527	1649	1717	1770	1863	1904	1940	1959	1952	1962	1977	2087	2173	2197	2232	2364	2312	2246	2127	2095	2057	2025	1971	1944	1918	1861	1825	1783	1744	1744	1729	1715	1755	1721	1781	1838	1905	1941	1977	2015	2078	2109	2150	2217	2249	2276	2293	2370	2403	2443	2517	2550	2586	2632	2753	2832	2901	2945	2956	2968	2980	2931	2870	2912	2960	2958	2964	2995	2958	-9999	-9999	-9999	-9999	-9999	-9999	-9999	-9999	-9999	-9999	-9999	-9999	-9999	-9999	-9999	-9999	-9999	-9999	-9999	-9999	-9999	-9999	-9999	-9999	-9999	-9999	-9999	-9999	-9999	-9999	-9999	-9999	-9999	-9999	-9999	-9999	-9999	-9999	-9999	-9999	-9999	-9999	-9999	-9999	-9999	-9999	-9999	-9999	-9999	-9999	-9999	-9999	-9999	-9999	-9999	-9999	-9999	-9999	-9999	-9999	-9999	-9999	-9999	-9999	-9999	-9999	-9999	-9999	-9999	-9999	-9999	-9999	-9999	-9999	-9999	-9999	-9999	-9999	-9999	-9999	-9999	-9999	-9999	-9999	-9999	-9999	-9999	-9999	-9999	-9999	-9999	-9999	-9999	-9999	-9999	-9999	-9999	-9999	-9999	-9999	-9999	-9999	-9999	-9999	-9999	-9999	-9999	-9999	-9999	-9999	-9999	-9999	-9999	-9999	-9999	-9999	-9999	-9999	-9999	-9999	-9999	-9999	-9999	-9999	-9999	-9999	-9999	-9999	-9999	-9999	-9999	-9999	-9999	-9999	-9999	-9999	-9999	-9999	-9999	-9999	-9999	-9999	-9999	-9999	-9999	-9999	-9999	-9999	-9999	-9999	-9999	-9999	-9999	-9999	-9999	-9999	-9999	-9999	-9999	-9999	-9999	-9999	-9999	-9999	-9999	-9999	-9999	-9999	-9999	-9999	-9999	-9999	-9999	-9999	-9999	-9999	-9999	-9999	-9999	-9999	-9999	-9999	-9999	-9999	-9999	-9999	-9999	-9999	-9999	-9999	-9999	-9999	-9999	-9999	-9999	-9999	-9999	-9999	-9999	-9999	-9999	-9999	-9999	-9999	-9999
1063	1106	1116	1120	1125	1180	1226	1272	1338	1360	1387	1414	1459	1488	1548	1580	1597	1613	1605	1664	1696	1721	1750	1770	1794	1821	1866	1890	1904	1952	1965	1978	1984	1978	1970	1946	1867	1825	1806	1829	1899	1947	1993	2073	2102	2129	2156	2135	2075	2026	1929	1881	1882	1822	1682	1600	1540	1475	1482	1519	1524	1542	1520	1525	1501	1459	1439	1412	1379	1349	1347	1324	1318	1302	1291	1274	1268	1266	1272	1286	1294	1302	1314	1330	1346	1360	1419	1468	1503	1559	1611	1656	1687	1708	1704	1720	1715	1729	1730	1737	1818	1859	1897	1944	1979	2036	2084	2181	2225	2263	2301	2227	2160	2099	1994	1947	1908	1903	1940	1954	1938	1803	1753	1695	1643	1592	1550	1558	1433	1362	1312	1277	1260	1259	1261	1298	1340	1369	1389	1460	1514	1558	1658	1703	1750	1800	1858	1875	1914	2047	2046	2069	2128	2089	2004	1947	1906	1871	1880	1912	1981	2035	2094	2149	2251	2288	2257	2200	2152	2124	2099	2061	2028	1990	1945	1920	1887	1857	1806	1779	1751	1663	1613	1564	1517	1425	1410	1414	1356	1331	1310	1276	1216	1169	1111	960	887	827	773	704	701	718	741	762	768	791	889	924	951	983	1033	1047	1057	1098	1096	1093	1093	1161	1191	1219	1242	1257	1280	1321	1384	1421	1449	1537	1593	1643	1698	1795	1829	1828	1800	1789	1764	1802	1855	1797	1762	1624	1547	1513	1566	1663	1653	1655	1772	1830	1886	1877	1812	1780	1726	1713	1621	1574	1532	1495	1543	1598	1651	1771	1818	1867	1979	2026	2031	2002	1926	1896	1924	1921	1970	2010	2047	2048	2026	2019	1935	1895	1862	1821	1734	1696	1654	1575	1526	1478	1418	1316	1282	1256	1221	1191	1160	1130	1118	1122	1141	1170	1240	1281	1322	1384	1415	1454	1523	1643	1718	1771	1855	1895	1934	1970	2027	2030	2051	2156	2231	2284	2322	2421	2361	2286	2151	2110	2076	2046	1991	1955	1927	1873	1842	1803	1769	1772	1747	1731	1767	1739	1783	1831	1900	1930	1964	2038	2073	2098	2127	2194	2225	2255	2270	2359	2403	2450	2518	2545	2571	2610	2718	2803	2877	2953	2962	2971	2981	2912	2911	2947	2988	2989	300	300	-9999	-9999	-9999	-9999	-9999	-9999	-9999	-9999	-9999	-9999	-9999	-9999	-9999	-9999	-9999	-9999	-9999	-9999	-9999	-9999	-9999	-9999	-9999	-9999	-9999	-9999	-9999	-9999	-9999	-9999	-9999	-9999	-9999	-9999	-9999	-9999	-9999	-9999	-9999	-9999	-9999	-9999	-9999	-9999	-9999	-9999	-9999	-9999	-9999	-9999	-9999	-9999	-9999	-9999	-9999	-9999	-9999	-9999	-9999	-9999	-9999	-9999	-9999	-9999	-9999	-9999	-9999	-9999	-9999	-9999	-9999	-9999	-9999	-9999	-9999	-9999	-9999	-9999	-9999	-9999	-9999	-9999	-9999	-9999	-9999	-9999	-9999	-9999	-9999	-9999	-9999	-9999	-9999	-9999	-9999	-9999	-9999	-9999	-9999	-9999	-9999	-9999	-9999	-9999	-9999	-9999	-9999	-9999	-9999	-9999	-9999	-9999	-9999	-9999	-9999	-9999	-9999	-9999	-9999	-9999	-9999	-9999	-9999	-9999	-9999	-9999	-9999	-9999	-9999	-9999	-9999	-9999	-9999	-9999	-9999	-9999	-9999	-9999	-9999	-9999	-9999	-9999	-9999	-9999	-9999	-9999	-9999	-9999	-9999	-9999	-9999	-9999	-9999	-9999	-9999	-9999	-9999	-9999	-9999	-9999	-9999	-9999	-9999	-9999	-9999	-9999	-9999	-9999	-9999	-9999	-9999	-9999	-9999	-9999	-9999	-9999	-9999	-9999	-9999	-9999	-9999	-9999	-9999	-9999	-9999	-9999	-9999	-9999	-9999	-9999	-9999	-9999	-9999	-9999	-9999	-9999	-9999	-9999	-9999	-9999	-9999	-9999	-9999	-9999	-9999	-9999
1033	1077	1082	1083	1111	1166	1210	1248	1307	1331	1353	1389	1425	1447	1467	1512	1532	1523	1585	1617	1642	1675	1707	1732	1764	1789	1837	1857	1878	1909	1917	1932	1945	1946	1948	1938	1873	1820	1774	1795	1858	1893	1935	2036	2061	2083	2112	2080	2030	1974	1922	1838	1828	1820	1692	1603	1539	1439	1429	1423	1422	1430	1414	1379	1355	1336	1383	1359	1338	1322	1302	1304	1278	1270	1264	1262	1265	1269	1272	1291	1305	1319	1360	1377	1394	1427	1505	1549	1547	1596	1649	1697	1735	1765	1752	1762	1756	1780	1790	1772	1835	1881	1926	1971	1997	2042	2088	2197	2253	2291	2279	2235	2163	2095	1989	1935	1891	1868	1883	1903	1909	1766	1717	1668	1615	1554	1514	1457	1367	1322	1286	1264	1263	1263	1261	1321	1374	1409	1428	1450	1509	1557	1657	1707	1752	1807	1880	1906	1937	2076	2143	2212	2254	2086	1999	1934	1878	1869	1890	1936	1993	2044	2105	2222	2268	2294	2264	2208	2176	2150	2137	2089	2065	2046	1977	1940	1901	1863	1783	1771	1735	1639	1587	1540	1497	1456	1452	1435	1366	1329	1303	1274	1213	1169	1106	975	907	841	786	728	703	723	744	757	770	790	874	909	936	1005	1027	1035	1038	1070	1074	1078	1078	1094	1132	1171	1210	1225	1245	1288	1364	1401	1425	1510	1566	1621	1677	1764	1801	1808	1739	1720	1709	1762	1823	1774	1694	1566	1500	1430	1475	1536	1549	1624	1747	1797	1833	1819	1752	1748	1693	1629	1582	1534	1492	1482	1531	1584	1713	1764	1813	1821	1893	1906	1918	1955	1859	1835	1868	1863	1918	1956	1982	1960	1947	1979	1911	1860	1828	1791	1702	1655	1604	1519	1462	1417	1375	1294	1271	1237	1193	1167	1143	1119	1115	1118	1140	1219	1262	1311	1364	1442	1451	1457	1537	1601	1652	1706	1797	1841	1886	1957	2036	2072	2120	2207	2277	2355	2397	2432	2350	2269	2149	2108	2078	2054	1998	1975	1950	1900	1870	1830	1811	1791	1762	1746	1791	1760	1779	1825	1901	1928	1957	2027	2061	2091	2122	2189	2218	2238	2317	2369	2424	2464	2498	2527	2562	2640	2693	2779	2868	2961	2965	2972	2983	2911	2924	2962	300	300	301	-9999	-9999	-9999	-9999	-9999	-9999	-9999	-9999	-9999	-9999	-9999	-9999	-9999	-9999	-9999	-9999	-9999	-9999	-9999	-9999	-9999	-9999	-9999	-9999	-9999	-9999	-9999	-9999	-9999	-9999	-9999	-9999	-9999	-9999	-9999	-9999	-9999	-9999	-9999	-9999	-9999	-9999	-9999	-9999	-9999	-9999	-9999	-9999	-9999	-9999	-9999	-9999	-9999	-9999	-9999	-9999	-9999	-9999	-9999	-9999	-9999	-9999	-9999	-9999	-9999	-9999	-9999	-9999	-9999	-9999	-9999	-9999	-9999	-9999	-9999	-9999	-9999	-9999	-9999	-9999	-9999	-9999	-9999	-9999	-9999	-9999	-9999	-9999	-9999	-9999	-9999	-9999	-9999	-9999	-9999	-9999	-9999	-9999	-9999	-9999	-9999	-9999	-9999	-9999	-9999	-9999	-9999	-9999	-9999	-9999	-9999	-9999	-9999	-9999	-9999	-9999	-9999	-9999	-9999	-9999	-9999	-9999	-9999	-9999	-9999	-9999	-9999	-9999	-9999	-9999	-9999	-9999	-9999	-9999	-9999	-9999	-9999	-9999	-9999	-9999	-9999	-9999	-9999	-9999	-9999	-9999	-9999	-9999	-9999	-9999	-9999	-9999	-9999	-9999	-9999	-9999	-9999	-9999	-9999	-9999	-9999	-9999	-9999	-9999	-9999	-9999	-9999	-9999	-9999	-9999	-9999	-9999	-9999	-9999	-9999	-9999	-9999	-9999	-9999	-9999	-9999	-9999	-9999	-9999	-9999	-9999	-9999	-9999	-9999	-9999	-9999	-9999	-9999	-9999	-9999	-9999	-9999	-9999	-9999	-9999	-9999	-9999	-9999	-9999	-9999	-9999	-9999
1036	1036	1047	1055	1097	1153	1187	1217	1267	1293	1309	1361	1392	1411	1429	1475	1489	1485	1554	1587	1621	1640	1671	1691	1718	1756	1775	1824	1842	1864	1876	1888	1907	1908	1910	1900	1864	1806	1758	1761	1828	1861	1906	1983	1987	1993	2003	1950	1947	1898	1869	1827	1752	1767	1692	1608	1539	1426	1384	1382	1390	1370	1364	1335	1308	1301	1290	1277	1272	1266	1254	1253	1260	1256	1258	1262	1268	1272	1296	1317	1332	1335	1380	1402	1428	1469	1554	1606	1639	1746	1774	1784	1823	1869	1855	1809	1796	1816	1843	1834	1849	1900	1946	1995	2029	2056	2093	2192	2238	2266	2223	2187	2153	2097	1999	1949	1899	1820	1831	1855	1875	1760	1689	1639	1540	1500	1470	1429	1337	1303	1278	1263	1265	1268	1283	1376	1431	1482	1499	1467	1502	1550	1648	1698	1748	1808	1894	1924	1956	2074	2163	2235	2257	2082	2009	1955	1891	1884	1911	1963	2031	2084	2145	2240	2283	2306	2292	2251	2229	2201	2124	2082	2059	2038	1969	1933	1897	1812	1767	1722	1678	1596	1560	1532	1532	1488	1468	1447	1376	1324	1273	1257	1188	1146	1077	922	844	807	804	758	716	700	742	747	752	760	832	869	923	992	1014	1026	1026	1037	1051	1060	1048	1064	1100	1144	1191	1204	1224	1289	1310	1344	1381	1465	1518	1572	1649	1731	1759	1767	1685	1658	1667	1729	1769	1745	1687	1558	1481	1392	1425	1484	1545	1608	1704	1731	1714	1685	1626	1705	1653	1585	1535	1481	1441	1468	1525	1591	1716	1756	1758	1759	1820	1842	1844	1795	1744	1718	1742	1747	1804	1848	1919	1880	1868	1917	1884	1833	1794	1755	1669	1625	1578	1488	1435	1390	1350	1277	1243	1206	1150	1134	1123	1113	1110	1124	1157	1245	1292	1344	1399	1486	1513	1511	1545	1599	1645	1691	1796	1836	1872	1943	1979	2015	2056	2151	2202	2306	2414	2428	2351	2262	2147	2115	2088	2066	2011	1988	1963	1914	1882	1844	1825	1802	1780	1765	1822	1800	1802	1831	1901	1924	1953	2010	2046	2076	2116	2186	2218	2245	2324	2371	2419	2462	2498	2531	2568	2670	2735	2823	2901	2963	2966	2974	2947	2910	2937	2981	301	301	-9999	-9999	-9999	-9999	-9999	-9999	-9999	-9999	-9999	-9999	-9999	-9999	-9999	-9999	-9999	-9999	-9999	-9999	-9999	-9999	-9999	-9999	-9999	-9999	-9999	-9999	-9999	-9999	-9999	-9999	-9999	-9999	-9999	-9999	-9999	-9999	-9999	-9999	-9999	-9999	-9999	-9999	-9999	-9999	-9999	-9999	-9999	-9999	-9999	-9999	-9999	-9999	-9999	-9999	-9999	-9999	-9999	-9999	-9999	-9999	-9999	-9999	-9999	-9999	-9999	-9999	-9999	-9999	-9999	-9999	-9999	-9999	-9999	-9999	-9999	-9999	-9999	-9999	-9999	-9999	-9999	-9999	-9999	-9999	-9999	-9999	-9999	-9999	-9999	-9999	-9999	-9999	-9999	-9999	-9999	-9999	-9999	-9999	-9999	-9999	-9999	-9999	-9999	-9999	-9999	-9999	-9999	-9999	-9999	-9999	-9999	-9999	-9999	-9999	-9999	-9999	-9999	-9999	-9999	-9999	-9999	-9999	-9999	-9999	-9999	-9999	-9999	-9999	-9999	-9999	-9999	-9999	-9999	-9999	-9999	-9999	-9999	-9999	-9999	-9999	-9999	-9999	-9999	-9999	-9999	-9999	-9999	-9999	-9999	-9999	-9999	-9999	-9999	-9999	-9999	-9999	-9999	-9999	-9999	-9999	-9999	-9999	-9999	-9999	-9999	-9999	-9999	-9999	-9999	-9999	-9999	-9999	-9999	-9999	-9999	-9999	-9999	-9999	-9999	-9999	-9999	-9999	-9999	-9999	-9999	-9999	-9999	-9999	-9999	-9999	-9999	-9999	-9999	-9999	-9999	-9999	-9999	-9999	-9999	-9999	-9999	-9999	-9999	-9999	-9999	-9999	-9999	-9999
