ncols 40    
nrows 40
xllcorner 457900
yllcorner 5716800
cellsize 100
NODATA_value -9999
2298 2287 2274 2254 2224 2195 2184 2202 2242 2272 2298 2327 2332 2291 2243 2202 2159 2132 2114 2118 2138 2144 2163 2198 2234 2259 2290 2335 2286 2212 2195 2178 2147 2123 2110 2128 2122 2109 2108 2116
2384 2372 2348 2321 2294 2264 2246 2266 2310 2346 2362 2377 2369 2333 2288 2234 2191 2164 2137 2140 2166 2188 2207 2231 2284 2323 2366 2363 2265 2210 2200 2179 2152 2128 2109 2101 2118 2117 2094 2078
2412 2414 2408 2385 2355 2331 2322 2336 2360 2377 2387 2389 2378 2360 2332 2286 2233 2196 2179 2188 2211 2241 2277 2312 2348 2379 2394 2364 2273 2202 2189 2171 2149 2127 2107 2086 2094 2113 2111 2098
2395 2399 2404 2403 2397 2383 2367 2363 2372 2380 2387 2386 2379 2369 2351 2324 2287 2258 2257 2264 2284 2314 2341 2364 2374 2372 2372 2338 2248 2187 2176 2161 2133 2118 2113 2091 2074 2086 2107 2112
2375 2379 2384 2390 2392 2391 2385 2373 2370 2374 2377 2378 2373 2366 2352 2335 2325 2318 2317 2323 2334 2345 2347 2346 2347 2351 2355 2313 2218 2162 2156 2147 2126 2116 2108 2101 2076 2064 2080 2099
2351 2355 2362 2370 2375 2380 2384 2376 2366 2363 2367 2369 2366 2360 2348 2334 2323 2321 2321 2320 2319 2319 2322 2328 2333 2339 2339 2285 2190 2152 2149 2132 2118 2113 2104 2096 2080 2060 2057 2069
2320 2326 2339 2351 2357 2365 2372 2370 2361 2356 2357 2359 2358 2352 2337 2326 2314 2304 2302 2301 2304 2306 2310 2316 2321 2326 2323 2277 2189 2146 2143 2125 2107 2099 2096 2089 2078 2053 2040 2050
2294 2301 2313 2326 2337 2349 2359 2361 2355 2350 2349 2350 2350 2342 2325 2312 2299 2291 2293 2293 2293 2296 2300 2304 2308 2314 2312 2273 2191 2138 2130 2118 2101 2090 2087 2078 2066 2054 2044 2031
2270 2278 2289 2302 2314 2328 2344 2350 2348 2347 2341 2333 2334 2327 2311 2299 2288 2281 2271 2251 2240 2251 2272 2285 2293 2300 2304 2266 2189 2131 2118 2112 2096 2083 2077 2069 2053 2041 2028 2028
2250 2257 2267 2280 2291 2297 2314 2332 2341 2344 2340 2331 2320 2311 2299 2288 2280 2261 2224 2185 2164 2171 2198 2228 2260 2283 2293 2263 2195 2129 2105 2097 2084 2072 2062 2053 2041 2027 2014 2017
2238 2240 2248 2259 2262 2274 2300 2322 2335 2340 2341 2336 2319 2300 2286 2280 2263 2225 2191 2158 2124 2118 2132 2153 2194 2243 2276 2264 2205 2136 2092 2076 2066 2055 2043 2039 2029 2015 2004 2004
2233 2232 2233 2236 2251 2276 2301 2319 2331 2336 2338 2332 2320 2300 2281 2272 2238 2186 2159 2146 2120 2097 2096 2117 2146 2187 2239 2264 2215 2127 2068 2057 2052 2039 2033 2021 2010 2005 1993 1991
2221 2226 2228 2229 2246 2274 2296 2315 2327 2333 2335 2330 2318 2301 2283 2268 2238 2195 2170 2177 2167 2127 2085 2089 2112 2141 2187 2245 2225 2125 2058 2049 2045 2031 2017 2008 2000 1994 1980 1979
2205 2210 2197 2206 2234 2259 2282 2303 2318 2326 2328 2327 2318 2303 2286 2271 2256 2240 2226 2222 2207 2150 2091 2066 2074 2103 2146 2207 2227 2140 2057 2042 2030 2023 2009 1999 1992 1981 1965 1967
2190 2190 2169 2192 2224 2247 2269 2289 2306 2315 2319 2322 2317 2306 2292 2279 2265 2249 2231 2221 2225 2173 2103 2059 2044 2069 2109 2166 2217 2141 2053 2021 2017 2010 1993 1982 1978 1971 1948 1953
2162 2164 2148 2175 2206 2228 2248 2267 2283 2298 2311 2317 2314 2307 2298 2289 2276 2255 2230 2215 2209 2163 2097 2063 2036 2041 2074 2125 2166 2129 2055 2010 2018 2014 1987 1965 1958 1953 1934 1941
2138 2135 2125 2155 2181 2200 2223 2250 2271 2292 2308 2314 2312 2307 2301 2291 2281 2267 2240 2216 2190 2146 2097 2062 2041 2031 2045 2082 2114 2099 2044 2008 2009 2005 1985 1958 1943 1934 1920 1929
2124 2094 2123 2166 2181 2199 2225 2246 2268 2289 2304 2310 2309 2307 2304 2294 2280 2272 2252 2225 2199 2171 2136 2084 2045 2023 2028 2046 2057 2063 2023 1995 1998 1993 1978 1951 1931 1913 1905 1918
2092 2079 2124 2163 2185 2207 2223 2237 2256 2275 2292 2302 2306 2308 2308 2302 2283 2269 2256 2235 2210 2193 2176 2122 2057 2014 2018 2025 2011 2010 1995 1984 1985 1978 1968 1941 1920 1898 1898 1907
2049 2069 2129 2160 2183 2205 2214 2225 2242 2261 2281 2296 2305 2309 2308 2307 2291 2272 2258 2241 2220 2194 2176 2133 2067 2017 2001 1994 1984 1978 1971 1969 1971 1959 1948 1930 1912 1886 1887 1893
2047 2058 2127 2158 2173 2196 2208 2215 2231 2250 2271 2289 2302 2307 2306 2305 2300 2279 2264 2251 2230 2199 2160 2113 2064 2026 1985 1980 1973 1966 1960 1953 1955 1949 1934 1921 1905 1877 1877 1880
2044 2042 2107 2153 2165 2178 2200 2206 2219 2237 2256 2275 2292 2302 2303 2302 2299 2289 2271 2258 2236 2207 2157 2111 2080 2046 2012 1978 1962 1968 1959 1946 1942 1937 1925 1914 1903 1878 1867 1870
2035 2027 2077 2132 2153 2166 2190 2203 2211 2224 2239 2257 2276 2288 2294 2297 2295 2290 2278 2260 2238 2214 2175 2154 2127 2102 2067 2019 1986 1963 1944 1931 1924 1926 1919 1906 1898 1882 1866 1858
2029 2008 2045 2088 2144 2159 2177 2199 2203 2213 2224 2239 2257 2272 2285 2292 2292 2287 2283 2268 2243 2222 2195 2170 2153 2135 2105 2052 1998 1977 1965 1952 1938 1911 1902 1890 1883 1868 1872 1861
2025 1998 2025 2066 2125 2155 2167 2184 2192 2200 2207 2221 2238 2261 2277 2288 2290 2287 2283 2278 2247 2222 2207 2188 2165 2145 2114 2058 2001 1974 1961 1950 1937 1924 1906 1899 1893 1885 1877 1866
2034 1995 1997 2041 2099 2147 2161 2167 2174 2181 2188 2201 2220 2247 2268 2282 2289 2288 2283 2277 2257 2229 2209 2198 2177 2148 2107 2050 2027 2011 1997 1979 1963 1952 1937 1928 1916 1901 1889 1875
2042 1996 1984 2019 2072 2128 2154 2156 2159 2166 2175 2189 2208 2233 2256 2273 2284 2288 2284 2276 2263 2245 2219 2202 2185 2157 2118 2095 2086 2067 2049 2030 2012 1997 1980 1963 1942 1923 1906 1887
2046 1999 1970 1998 2043 2100 2144 2151 2142 2141 2166 2180 2198 2220 2242 2260 2275 2285 2284 2277 2268 2259 2241 2210 2194 2177 2159 2141 2125 2103 2089 2078 2067 2054 2036 2013 1985 1956 1928 1903
2045 1999 1967 1977 2013 2065 2121 2130 2105 2137 2161 2170 2187 2208 2228 2245 2262 2278 2285 2279 2268 2261 2252 2224 2201 2190 2178 2160 2140 2120 2111 2106 2103 2098 2086 2067 2039 1996 1950 1915
2040 1994 1964 1961 1991 2034 2072 2072 2066 2128 2163 2164 2175 2197 2217 2231 2250 2268 2282 2281 2272 2262 2254 2241 2210 2192 2183 2167 2146 2133 2122 2115 2114 2112 2106 2095 2078 2028 1966 1923
2047 1993 1961 1946 1973 1997 2011 2014 2027 2067 2111 2142 2166 2185 2208 2222 2240 2258 2274 2283 2282 2268 2257 2247 2224 2199 2188 2175 2153 2134 2121 2112 2107 2103 2099 2085 2076 2035 1977 1926
2017 1984 1959 1938 1957 1974 1989 2013 2045 2066 2087 2107 2146 2174 2198 2214 2230 2248 2266 2282 2288 2279 2268 2248 2237 2209 2191 2181 2159 2135 2115 2094 2082 2078 2073 2070 2065 2026 1970 1924
1987 1963 1946 1933 1949 1969 1996 2042 2085 2106 2114 2117 2137 2167 2189 2207 2221 2241 2260 2277 2286 2283 2272 2248 2234 2217 2195 2181 2155 2125 2102 2082 2068 2054 2054 2058 2055 2010 1953 1912
1961 1948 1936 1926 1952 1974 2014 2072 2108 2124 2133 2145 2154 2173 2189 2204 2219 2238 2256 2272 2280 2279 2268 2247 2231 2217 2198 2179 2148 2119 2098 2072 2036 2013 2021 2032 2020 1978 1933 1901
1945 1933 1923 1933 1961 1988 2033 2090 2122 2132 2147 2163 2172 2182 2193 2203 2218 2234 2252 2265 2273 2271 2260 2244 2231 2220 2203 2176 2144 2123 2103 2081 2054 2011 1974 1984 1971 1936 1902 1887
1927 1918 1919 1940 1964 1994 2040 2096 2132 2143 2153 2165 2171 2178 2185 2196 2211 2227 2244 2256 2263 2261 2251 2239 2231 2221 2204 2173 2145 2130 2110 2086 2055 2013 1966 1939 1934 1912 1887 1872
1910 1909 1927 1947 1969 1998 2045 2099 2134 2146 2149 2154 2157 2163 2170 2181 2200 2223 2238 2244 2249 2249 2241 2232 2229 2223 2207 2172 2143 2134 2112 2082 2041 1996 1950 1917 1905 1893 1876 1861
1898 1913 1929 1948 1969 1997 2042 2092 2121 2131 2136 2139 2143 2149 2156 2168 2194 2226 2238 2230 2231 2232 2223 2222 2224 2216 2196 2163 2139 2124 2092 2052 2015 1974 1933 1909 1897 1880 1874 1876
1914 1923 1932 1942 1961 1990 2024 2067 2104 2114 2116 2121 2126 2133 2145 2163 2194 2230 2238 2217 2212 2210 2202 2205 2201 2172 2139 2117 2093 2058 2023 1994 1972 1947 1923 1905 1893 1893 1893 1893
1930 1941 1951 1953 1958 1974 1995 2022 2043 2063 2080 2094 2112 2127 2142 2164 2198 2230 2231 2203 2193 2193 2186 2180 2155 2118 2089 2066 2039 2010 1985 1960 1943 1931 1918 1915 1917 1917 1913 1907