ncols	590
nrows	32
xllcorner	-1615600
yllcorner	493200
cellsize	100
NODATA_value	-9999
2092	2056	2019	1973	1957	1948	1938	1913	1938	1995	2024	1990	2002	2021	2061	2097	2084	2043	2020	2014	2009	1965	1937	1904	1856	1841	1825	1810	1746	1709	1671	1607	1554	1542	1543	1609	1646	1674	1802	1803	1774	1748	1699	1672	1641	1585	1568	1542	1512	1443	1395	1344	1295	1213	1177	1148	1172	1198	1229	1264	1346	1409	1472	1581	1629	1673	1733	1857	1929	1994	2076	2066	2079	2088	2110	2099	2123	2248	2238	2234	2226	2234	2268	2324	2320	2317	2314	2310	2320	2325	2335	2426	2421	2390	2359	2321	2332	2333	2309	2298	2292	2291	2277	2277	2263	2193	2165	2142	2125	2107	2096	2077	2032	2007	1987	1969	1895	1899	1858	1828	1826	1814	1787	1765	1755	1742	1667	1640	1613	1594	1551	1529	1511	1487	1473	1460	1441	1402	1392	1402	1381	1373	1370	1367	1371	1381	1387	1386	1381	1368	1356	1342	1339	1337	1315	1306	1305	1302	1293	1290	1301	1290	1287	1292	1293	1292	1294	1296	1316	1321	1324	1329	1314	1305	1309	1316	1318	1320	1321	1319	1315	1317	1367	1373	1388	1402	1427	1474	1512	1544	1614	1656	1675	1750	1769	1778	1788	1797	1831	1781	1836	1869	1860	1884	1759	1712	1679	1684	1668	1697	1722	1810	1863	1900	1941	1949	1979	2004	1968	1949	1918	1820	1754	1733	1763	1847	1895	1912	2018	2064	2108	2121	2188	2127	2073	1980	1956	1950	1971	2068	2127	2169	2258	2319	2358	2364	2495	2532	2590	2567	2531	2524	2491	2412	2365	2313	2246	2200	2152	2110	2022	1995	1967	1886	1839	1810	1772	1745	1697	1651	1561	1513	1454	1377	1263	1227	1200	1114	1077	1046	1015	972	955	941	945	924	886	854	889	893	908	986	1017	1017	1016	1076	1122	1152	1203	1239	1272	1291	1359	1393	1435	1521	1571	1623	1673	1729	1728	1717	1684	1659	1687	1727	1790	1824	1860	1932	1967	2006	2043	2115	2158	2205	2260	2272	2290	2283	2275	2255	2242	2133	2122	2106	2101	2056	2039	2014	2027	2104	2113	2100	2084	2048	2004	1974	1962	1933	1892	1848	1835	1878	1853	1762	1728	1682	1581	1539	1491	1443	1368	1330	1297	1248	1213	1183	1148	1094	1058	1052	1012	995	994	980	942	959	978	994	990	976	968	931	908	878	854	842	827	800	753	753	753	753	753	753	753	753	753	753	753	753	753	753	753	753	753	753	753	753	753	753	753	753	767	793	814	836	865	873	881	901	908	904	898	904	908	910	917	918	919	923	941	943	919	875	889	898	907	923	922	925	941	954	973	989	1026	1042	1069	1173	1231	1275	1330	1450	1520	1559	1615	1652	1702	1736	1801	1843	1884	1952	1975	1989	1992	2007	2031	2079	2188	2231	2274	2316	2411	2465	2503	2556	2556	2495	2412	2275	2198	2128	1997	1949	1914	1881	1842	1834	1850	1909	1919	1863	1811	-9999	-9999	-9999	-9999	-9999	-9999	-9999	-9999	-9999	-9999	-9999	-9999	-9999	-9999	-9999	-9999	-9999	-9999	-9999	-9999	-9999	-9999	-9999	-9999	-9999	-9999	-9999	-9999	-9999	-9999	-9999	-9999	-9999	-9999	-9999	-9999	-9999	-9999	-9999	-9999	-9999	-9999	-9999	-9999	-9999	-9999	-9999	-9999	-9999	-9999	-9999	-9999	-9999	-9999	-9999	-9999	-9999	-9999	-9999	-9999	-9999	-9999	-9999	-9999	-9999	-9999	-9999	-9999	-9999	-9999	-9999	-9999	-9999	-9999	-9999	-9999	-9999	-9999	-9999	-9999	-9999	-9999	-9999	-9999	-9999	-9999	-9999	-9999	-9999	-9999	-9999	-9999	-9999	-9999	-9999
2137	2113	2082	2035	2008	1977	1960	1945	1972	2040	2069	2072	2081	2093	2130	2118	2104	2065	2037	2026	2014	1959	1934	1909	1857	1831	1808	1796	1770	1731	1699	1627	1609	1628	1638	1731	1769	1807	1821	1795	1758	1734	1687	1660	1632	1593	1575	1546	1516	1445	1400	1347	1253	1218	1182	1150	1156	1180	1212	1304	1350	1412	1470	1587	1646	1704	1819	1885	1959	2023	2085	2082	2099	2120	2130	2144	2174	2313	2293	2274	2254	2255	2297	2335	2330	2329	2322	2319	2329	2332	2351	2437	2407	2377	2352	2315	2306	2308	2286	2273	2270	2265	2269	2258	2244	2179	2145	2118	2101	2090	2079	2061	2033	2011	1987	1963	1941	1956	1963	1892	1872	1876	1884	1868	1811	1796	1720	1690	1658	1622	1575	1556	1536	1499	1480	1460	1439	1395	1386	1389	1396	1405	1401	1396	1419	1417	1434	1405	1390	1375	1359	1345	1344	1354	1314	1305	1303	1298	1295	1295	1292	1282	1281	1282	1279	1276	1275	1282	1286	1288	1293	1301	1296	1288	1289	1289	1287	1288	1289	1293	1296	1301	1288	1296	1305	1316	1332	1370	1445	1527	1566	1593	1607	1688	1705	1701	1740	1752	1794	1745	1765	1795	1784	1801	1734	1669	1611	1583	1598	1657	1732	1779	1824	1880	1882	1895	1924	1929	1896	1865	1852	1810	1745	1703	1737	1768	1794	1833	1923	1962	1996	2066	2147	2098	2040	1944	1928	1926	1955	2058	2108	2146	2202	2237	2270	2306	2386	2426	2467	2520	2490	2487	2488	2402	2364	2309	2225	2187	2143	2095	2020	1985	1953	1882	1832	1788	1743	1668	1630	1594	1541	1489	1435	1370	1253	1218	1190	1108	1068	1035	1011	966	950	936	923	911	874	855	883	893	906	966	1007	1044	1051	1099	1150	1181	1239	1272	1306	1335	1400	1443	1476	1562	1614	1664	1701	1758	1790	1815	1797	1763	1763	1793	1843	1832	1875	1952	1986	2024	2062	2131	2172	2214	2296	2330	2326	2294	2241	2224	2218	2191	2147	2114	2114	2085	2059	2052	2109	2126	2099	2068	2036	2009	1959	1919	1912	1889	1848	1802	1780	1762	1702	1660	1628	1569	1462	1474	1433	1348	1305	1277	1247	1190	1160	1125	1065	1050	1038	1027	1011	1040	1053	1042	1044	1055	1042	1014	1001	982	969	935	917	892	855	842	832	813	759	753	753	753	753	753	753	753	753	753	753	753	753	753	753	753	753	753	753	753	753	753	753	753	761	791	812	837	870	879	888	907	916	920	909	906	910	914	918	920	921	924	942	949	933	878	881	893	904	924	927	930	952	966	971	986	1020	1035	1059	1150	1204	1249	1301	1418	1477	1506	1607	1636	1684	1724	1785	1833	1877	1951	1970	1995	2011	2013	2035	2074	2162	2209	2249	2288	2397	2462	2493	2541	2518	2472	2399	2258	2197	2151	2026	1977	1938	1911	1857	1848	1851	1919	1930	1881	1845	1814	-9999	-9999	-9999	-9999	-9999	-9999	-9999	-9999	-9999	-9999	-9999	-9999	-9999	-9999	-9999	-9999	-9999	-9999	-9999	-9999	-9999	-9999	-9999	-9999	-9999	-9999	-9999	-9999	-9999	-9999	-9999	-9999	-9999	-9999	-9999	-9999	-9999	-9999	-9999	-9999	-9999	-9999	-9999	-9999	-9999	-9999	-9999	-9999	-9999	-9999	-9999	-9999	-9999	-9999	-9999	-9999	-9999	-9999	-9999	-9999	-9999	-9999	-9999	-9999	-9999	-9999	-9999	-9999	-9999	-9999	-9999	-9999	-9999	-9999	-9999	-9999	-9999	-9999	-9999	-9999	-9999	-9999	-9999	-9999	-9999	-9999	-9999	-9999	-9999	-9999	-9999	-9999	-9999	-9999
2063	2060	2111	2093	2055	2012	1987	1977	2016	2086	2106	2113	2133	2151	2144	2119	2103	2078	2068	2072	2067	1972	1931	1894	1862	1837	1810	1794	1777	1753	1723	1657	1658	1677	1700	1803	1837	1855	1779	1756	1737	1723	1682	1660	1642	1601	1582	1549	1514	1448	1403	1345	1250	1215	1178	1153	1157	1174	1209	1301	1355	1409	1467	1590	1651	1708	1836	1904	1976	2035	2103	2099	2113	2136	2151	2176	2201	2329	2329	2293	2304	2346	2362	2359	2353	2349	2341	2340	2341	2345	2362	2421	2379	2357	2339	2309	2292	2290	2276	2269	2259	2253	2254	2251	2235	2159	2108	2081	2069	2072	2057	2044	2029	2025	2018	1988	1995	2012	2014	1937	1944	1953	1937	1919	1887	1846	1801	1780	1745	1720	1616	1585	1553	1507	1481	1455	1433	1403	1397	1413	1414	1423	1415	1420	1434	1433	1436	1435	1409	1389	1379	1347	1350	1363	1341	1334	1331	1318	1309	1310	1308	1291	1286	1282	1281	1278	1278	1276	1277	1275	1272	1270	1270	1276	1275	1270	1270	1270	1272	1278	1283	1288	1274	1277	1283	1285	1314	1351	1386	1431	1465	1476	1478	1518	1627	1633	1675	1715	1739	1705	1679	1691	1708	1753	1719	1660	1606	1545	1574	1604	1701	1718	1761	1779	1764	1804	1881	1860	1828	1796	1783	1799	1744	1673	1688	1723	1750	1786	1866	1904	1930	2027	2035	1996	1936	1868	1879	1914	1987	2036	2083	2111	2153	2194	2232	2295	2329	2359	2390	2442	2439	2453	2442	2399	2360	2304	2222	2170	2130	2049	2014	1978	1949	1870	1823	1782	1692	1651	1603	1566	1519	1470	1415	1357	1219	1176	1134	1079	1048	1019	1004	964	947	933	902	898	864	871	888	913	926	951	996	1054	1066	1144	1195	1242	1324	1357	1400	1382	1448	1482	1516	1606	1650	1689	1726	1771	1803	1832	1859	1835	1814	1841	1892	1905	1933	1972	2007	2039	2079	2146	2172	2211	2302	2346	2338	2288	2227	2227	2209	2201	2157	2120	2109	2132	2159	2170	2113	2068	2032	1996	1991	1967	1927	1879	1866	1845	1808	1751	1728	1704	1646	1606	1565	1517	1421	1365	1323	1239	1203	1178	1157	1155	1103	1086	1097	1107	1100	1091	1072	1084	1093	1089	1084	1083	1053	1013	1003	993	966	954	934	911	873	847	838	798	769	755	753	753	753	753	753	753	753	753	753	753	753	753	753	753	753	753	753	753	753	753	753	753	757	783	806	859	869	878	890	909	919	924	913	909	913	916	919	920	921	926	942	953	947	894	877	886	900	921	924	927	955	970	977	982	1010	1026	1049	1109	1148	1192	1276	1384	1429	1481	1588	1622	1667	1704	1768	1821	1871	1949	1971	1994	2015	2030	2045	2066	2122	2159	2211	2277	2381	2442	2483	2522	2502	2433	2369	2237	2197	2153	2039	1991	1956	1929	1891	1882	1878	1913	1945	1934	1936	1847	-9999	-9999	-9999	-9999	-9999	-9999	-9999	-9999	-9999	-9999	-9999	-9999	-9999	-9999	-9999	-9999	-9999	-9999	-9999	-9999	-9999	-9999	-9999	-9999	-9999	-9999	-9999	-9999	-9999	-9999	-9999	-9999	-9999	-9999	-9999	-9999	-9999	-9999	-9999	-9999	-9999	-9999	-9999	-9999	-9999	-9999	-9999	-9999	-9999	-9999	-9999	-9999	-9999	-9999	-9999	-9999	-9999	-9999	-9999	-9999	-9999	-9999	-9999	-9999	-9999	-9999	-9999	-9999	-9999	-9999	-9999	-9999	-9999	-9999	-9999	-9999	-9999	-9999	-9999	-9999	-9999	-9999	-9999	-9999	-9999	-9999	-9999	-9999	-9999	-9999	-9999	-9999	-9999	-9999
2032	2026	2037	2095	2109	2086	2034	2049	2065	2135	2151	2172	2204	2172	2147	2113	2094	2051	2033	2021	1990	1966	1929	1893	1837	1827	1807	1793	1789	1756	1720	1680	1703	1721	1762	1881	1899	1865	1776	1754	1738	1724	1692	1669	1656	1649	1622	1587	1540	1472	1416	1347	1255	1213	1171	1153	1153	1168	1201	1297	1356	1407	1469	1593	1660	1712	1845	1904	1950	2007	2098	2139	2138	2159	2171	2194	2218	2326	2360	2324	2355	2359	2359	2360	2357	2352	2351	2361	2367	2388	2418	2365	2343	2334	2343	2315	2278	2274	2253	2247	2238	2234	2237	2233	2225	2156	2112	2082	2065	2073	2076	2076	2073	2075	2074	2035	2045	2046	2022	1997	1998	2007	1987	1967	1938	1884	1818	1805	1786	1706	1671	1630	1583	1512	1483	1460	1418	1418	1413	1427	1436	1446	1449	1443	1443	1442	1446	1441	1425	1414	1402	1393	1386	1392	1394	1397	1395	1385	1339	1337	1330	1302	1292	1291	1290	1283	1282	1279	1286	1285	1280	1275	1280	1284	1290	1297	1292	1272	1260	1269	1273	1275	1264	1264	1268	1269	1301	1326	1344	1398	1425	1427	1423	1458	1489	1516	1557	1597	1579	1591	1610	1615	1635	1696	1694	1640	1585	1520	1554	1583	1656	1669	1712	1717	1722	1751	1753	1687	1664	1650	1671	1736	1739	1669	1645	1675	1707	1744	1808	1841	1869	1970	1967	1947	1883	1834	1861	1897	1973	1981	1996	2036	2131	2179	2208	2254	2280	2299	2330	2387	2398	2413	2450	2392	2348	2297	2198	2153	2110	2029	1993	1962	1929	1839	1801	1778	1689	1640	1584	1557	1509	1457	1390	1273	1240	1191	1140	1072	1041	1012	964	941	919	892	870	862	860	887	899	924	947	982	1001	1061	1106	1164	1223	1269	1372	1414	1443	1502	1541	1571	1599	1663	1687	1710	1754	1781	1814	1842	1904	1877	1852	1863	1927	1959	1986	2020	2045	2078	2108	2176	2210	2249	2329	2358	2349	2280	2246	2232	2217	2192	2168	2141	2141	2185	2212	2181	2081	2037	1998	1966	1903	1889	1859	1791	1781	1750	1719	1710	1682	1650	1591	1561	1519	1468	1372	1319	1278	1219	1222	1209	1206	1212	1209	1202	1214	1224	1205	1197	1135	1144	1143	1125	1113	1097	1075	1025	1009	1003	970	959	942	919	879	864	851	821	799	788	773	753	753	753	753	753	753	753	753	753	753	753	753	753	753	753	753	753	753	753	753	753	754	782	801	853	865	873	885	910	920	927	920	911	914	917	919	919	923	927	941	954	962	936	883	877	906	913	913	924	953	970	981	995	1009	1028	1042	1094	1123	1157	1270	1318	1385	1441	1558	1595	1647	1731	1768	1814	1861	1940	1967	1992	2048	2051	2049	2064	2100	2132	2184	2285	2331	2378	2417	2482	2479	2409	2342	2247	2215	2164	2051	2010	1975	1947	1913	1900	1894	1924	1947	1949	1952	1914	-9999	-9999	-9999	-9999	-9999	-9999	-9999	-9999	-9999	-9999	-9999	-9999	-9999	-9999	-9999	-9999	-9999	-9999	-9999	-9999	-9999	-9999	-9999	-9999	-9999	-9999	-9999	-9999	-9999	-9999	-9999	-9999	-9999	-9999	-9999	-9999	-9999	-9999	-9999	-9999	-9999	-9999	-9999	-9999	-9999	-9999	-9999	-9999	-9999	-9999	-9999	-9999	-9999	-9999	-9999	-9999	-9999	-9999	-9999	-9999	-9999	-9999	-9999	-9999	-9999	-9999	-9999	-9999	-9999	-9999	-9999	-9999	-9999	-9999	-9999	-9999	-9999	-9999	-9999	-9999	-9999	-9999	-9999	-9999	-9999	-9999	-9999	-9999	-9999	-9999	-9999	-9999	-9999	-9999
2017	2010	2017	2076	2097	2097	2080	2086	2139	2195	2241	2242	2223	2175	2137	2103	2082	2041	2029	2023	1992	1974	1932	1896	1839	1821	1799	1786	1788	1746	1734	1765	1826	1850	1981	2012	1946	1880	1787	1765	1744	1724	1708	1692	1685	1663	1638	1597	1505	1469	1421	1367	1255	1206	1170	1154	1158	1164	1194	1294	1346	1395	1523	1583	1650	1708	1826	1879	1922	1974	2063	2114	2160	2204	2215	2238	2262	2366	2372	2351	2374	2367	2359	2361	2367	2371	2368	2375	2383	2429	2414	2344	2333	2332	2321	2318	2273	2231	2220	2221	2220	2222	2224	2221	2216	2155	2116	2092	2082	2092	2092	2084	2071	2068	2064	2077	2095	2088	2065	2025	2011	2010	2007	1984	1958	1916	1830	1809	1792	1723	1687	1646	1601	1532	1498	1479	1471	1477	1466	1467	1500	1510	1517	1476	1477	1475	1472	1472	1462	1457	1448	1439	1432	1434	1451	1441	1445	1440	1418	1401	1400	1394	1387	1379	1316	1302	1294	1292	1303	1302	1291	1288	1295	1300	1309	1316	1308	1295	1275	1272	1261	1254	1250	1248	1245	1263	1277	1294	1299	1361	1380	1387	1389	1399	1419	1445	1509	1542	1498	1502	1463	1486	1510	1576	1597	1582	1528	1493	1523	1545	1598	1636	1660	1643	1667	1680	1677	1606	1582	1591	1632	1682	1685	1666	1550	1568	1610	1643	1736	1761	1791	1909	1902	1877	1821	1805	1844	1877	1936	1944	1974	2028	2105	2130	2157	2193	2209	2225	2246	2283	2345	2354	2420	2390	2345	2295	2185	2140	2102	2023	1985	1956	1922	1831	1794	1752	1692	1657	1614	1582	1534	1476	1422	1310	1258	1203	1159	1090	1057	1019	948	936	916	879	868	868	885	923	932	947	988	1062	1015	1067	1122	1177	1239	1289	1398	1451	1503	1534	1563	1594	1622	1680	1703	1728	1788	1821	1856	1893	1964	1986	1885	1894	1933	1967	2000	2056	2086	2129	2184	2220	2253	2284	2352	2385	2387	2346	2323	2301	2273	2225	2213	2182	2198	2229	2209	2160	2049	2007	1975	1899	1868	1843	1813	1751	1731	1705	1652	1622	1591	1561	1480	1455	1419	1417	1319	1287	1266	1282	1291	1284	1263	1267	1261	1251	1259	1258	1241	1227	1210	1200	1181	1147	1130	1111	1087	1045	1021	1008	975	961	947	927	886	869	855	826	814	815	796	753	753	753	754	753	753	753	753	753	753	753	753	753	753	753	753	753	753	753	753	753	753	774	798	854	870	874	880	907	919	930	925	916	913	915	920	919	925	931	942	954	963	951	926	896	879	889	914	932	952	967	982	996	1007	1028	1043	1086	1112	1144	1264	1315	1370	1416	1524	1580	1626	1730	1755	1787	1831	1916	1961	1991	2050	2075	2064	2060	2081	2111	2161	2259	2304	2337	2378	2453	2468	2414	2304	2256	2217	2188	2109	2058	1997	1959	1938	1921	1911	1936	1961	1951	1949	1945	-9999	-9999	-9999	-9999	-9999	-9999	-9999	-9999	-9999	-9999	-9999	-9999	-9999	-9999	-9999	-9999	-9999	-9999	-9999	-9999	-9999	-9999	-9999	-9999	-9999	-9999	-9999	-9999	-9999	-9999	-9999	-9999	-9999	-9999	-9999	-9999	-9999	-9999	-9999	-9999	-9999	-9999	-9999	-9999	-9999	-9999	-9999	-9999	-9999	-9999	-9999	-9999	-9999	-9999	-9999	-9999	-9999	-9999	-9999	-9999	-9999	-9999	-9999	-9999	-9999	-9999	-9999	-9999	-9999	-9999	-9999	-9999	-9999	-9999	-9999	-9999	-9999	-9999	-9999	-9999	-9999	-9999	-9999	-9999	-9999	-9999	-9999	-9999	-9999	-9999	-9999	-9999	-9999	-9999
2007	1999	2001	2053	2080	2083	2099	2111	2138	2155	2175	2182	2179	2198	2151	2116	2094	2053	2049	2047	2022	1967	1935	1898	1836	1806	1785	1766	1763	1754	1767	1884	1923	1924	2051	2033	1963	1895	1831	1815	1816	1769	1727	1714	1704	1667	1643	1598	1505	1466	1425	1367	1253	1202	1171	1156	1160	1170	1197	1275	1325	1387	1520	1578	1635	1689	1793	1849	1897	1978	2025	2085	2148	2237	2251	2272	2323	2377	2398	2392	2396	2389	2385	2385	2392	2388	2389	2390	2409	2451	2359	2336	2331	2325	2304	2305	2261	2227	2229	2232	2233	2231	2230	2229	2225	2214	2166	2150	2111	2102	2092	2087	2070	2063	2068	2102	2120	2109	2088	2059	2038	2029	2022	2006	1980	1952	1867	1813	1797	1736	1706	1661	1619	1552	1528	1520	1510	1507	1486	1494	1532	1544	1557	1562	1565	1564	1564	1572	1580	1501	1495	1496	1498	1506	1505	1502	1507	1500	1469	1446	1453	1457	1443	1434	1412	1392	1384	1386	1369	1363	1318	1322	1325	1326	1334	1338	1335	1329	1309	1305	1291	1269	1256	1254	1249	1245	1245	1252	1255	1294	1302	1303	1345	1347	1360	1395	1438	1464	1428	1437	1414	1423	1452	1513	1536	1544	1432	1423	1440	1467	1503	1519	1514	1570	1584	1593	1559	1516	1531	1562	1580	1614	1629	1624	1531	1521	1560	1598	1614	1646	1684	1788	1772	1751	1756	1778	1815	1845	1899	1948	1994	2047	2073	2106	2130	2156	2172	2195	2211	2231	2234	2235	2258	2280	2334	2316	2186	2139	2095	2013	1974	1947	1911	1817	1778	1739	1687	1668	1634	1602	1543	1500	1460	1341	1284	1233	1184	1093	1061	1015	937	917	903	879	866	881	909	939	952	962	1009	1072	1063	1074	1147	1200	1245	1296	1417	1478	1526	1566	1580	1606	1637	1694	1721	1746	1807	1835	1874	1914	1990	2025	2005	1931	1927	1936	1944	2015	2085	2130	2194	2236	2279	2318	2366	2398	2420	2442	2379	2341	2310	2257	2256	2265	2206	2173	2129	2081	1986	1949	1943	1874	1835	1799	1774	1713	1685	1655	1611	1580	1544	1512	1437	1415	1398	1396	1399	1404	1386	1393	1398	1337	1310	1315	1307	1297	1279	1270	1256	1230	1218	1203	1182	1143	1128	1117	1082	1064	1041	1016	987	968	954	912	892	875	857	835	841	845	785	758	753	753	753	753	753	753	753	753	753	753	753	753	753	753	753	753	753	753	753	753	753	769	795	849	870	878	879	902	915	928	925	921	915	918	918	920	925	936	944	953	962	962	941	913	878	884	905	930	951	964	979	996	1007	1021	1031	1082	1107	1139	1249	1296	1342	1392	1510	1564	1617	1719	1749	1774	1813	1899	1942	1976	2046	2085	2119	2099	2070	2099	2145	2234	2268	2298	2342	2410	2442	2441	2352	2290	2249	2226	2157	2099	2066	2017	1994	1971	1965	1980	1965	1960	1946	1948	1958	-9999	-9999	-9999	-9999	-9999	-9999	-9999	-9999	-9999	-9999	-9999	-9999	-9999	-9999	-9999	-9999	-9999	-9999	-9999	-9999	-9999	-9999	-9999	-9999	-9999	-9999	-9999	-9999	-9999	-9999	-9999	-9999	-9999	-9999	-9999	-9999	-9999	-9999	-9999	-9999	-9999	-9999	-9999	-9999	-9999	-9999	-9999	-9999	-9999	-9999	-9999	-9999	-9999	-9999	-9999	-9999	-9999	-9999	-9999	-9999	-9999	-9999	-9999	-9999	-9999	-9999	-9999	-9999	-9999	-9999	-9999	-9999	-9999	-9999	-9999	-9999	-9999	-9999	-9999	-9999	-9999	-9999	-9999	-9999	-9999	-9999	-9999	-9999	-9999	-9999	-9999	-9999	-9999
1989	1989	1993	2011	2029	2040	2079	2088	2100	2107	2113	2136	2124	2199	2186	2140	2108	2066	2071	2081	2070	2027	1965	1914	1830	1800	1782	1762	1775	1785	1821	2011	2005	2016	2096	2037	1969	1912	1866	1861	1873	1784	1751	1740	1732	1704	1662	1614	1501	1466	1421	1362	1251	1203	1173	1157	1164	1177	1201	1277	1323	1389	1478	1521	1578	1635	1740	1797	1857	1971	2020	2085	2146	2234	2280	2312	2357	2408	2412	2404	2400	2396	2395	2388	2396	2401	2406	2426	2465	2416	2324	2326	2314	2312	2290	2285	2252	2238	2242	2240	2240	2236	2233	2235	2227	2217	2205	2189	2128	2100	2087	2103	2073	2073	2088	2131	2152	2142	2120	2102	2076	2056	2025	2007	1987	1932	1896	1882	1842	1745	1705	1671	1618	1592	1571	1573	1553	1538	1505	1562	1592	1595	1590	1610	1614	1624	1632	1637	1633	1635	1636	1644	1641	1624	1619	1557	1561	1561	1548	1533	1530	1542	1522	1498	1485	1468	1465	1452	1419	1418	1429	1407	1410	1410	1414	1413	1372	1365	1354	1353	1334	1306	1286	1273	1271	1261	1250	1244	1244	1272	1271	1272	1264	1272	1280	1277	1280	1287	1359	1369	1366	1375	1402	1446	1480	1499	1401	1390	1408	1433	1449	1448	1430	1439	1414	1379	1400	1449	1464	1525	1521	1547	1550	1550	1528	1483	1508	1551	1578	1608	1646	1741	1706	1683	1723	1745	1768	1799	1872	1879	1925	2004	2034	2072	2084	2118	2143	2174	2185	2193	2206	2207	2206	2227	2298	2294	2242	2205	2130	2031	1999	1949	1846	1799	1763	1726	1667	1661	1637	1570	1539	1493	1449	1347	1289	1239	1137	1103	1060	1013	927	898	885	871	869	891	923	953	971	997	1035	1100	1094	1087	1162	1212	1255	1297	1412	1475	1532	1586	1600	1621	1654	1703	1729	1757	1820	1849	1888	1928	2001	2039	2055	1986	1987	1984	1982	1994	2024	2069	2155	2195	2247	2293	2376	2411	2442	2492	2450	2385	2351	2301	2298	2250	2163	2125	2085	2039	1952	1916	1888	1821	1783	1749	1719	1647	1646	1616	1560	1532	1503	1480	1454	1450	1446	1449	1456	1459	1456	1449	1451	1450	1417	1394	1373	1352	1316	1280	1263	1238	1224	1205	1179	1140	1129	1117	1086	1068	1038	1016	988	971	958	924	904	888	872	863	866	866	806	777	755	753	753	753	753	753	753	753	753	753	753	753	753	753	753	753	753	753	753	753	753	763	788	844	866	879	886	898	912	926	929	920	916	919	918	920	925	935	942	952	969	967	952	934	880	881	893	940	951	962	978	995	1008	1018	1038	1060	1089	1121	1199	1247	1294	1376	1473	1536	1598	1698	1737	1769	1806	1890	1930	1965	2036	2083	2128	2134	2081	2081	2112	2179	2193	2218	2249	2376	2423	2444	2381	2328	2289	2262	2202	2144	2107	2052	2026	2015	2007	1992	1993	1994	2011	1998	2003	-9999	-9999	-9999	-9999	-9999	-9999	-9999	-9999	-9999	-9999	-9999	-9999	-9999	-9999	-9999	-9999	-9999	-9999	-9999	-9999	-9999	-9999	-9999	-9999	-9999	-9999	-9999	-9999	-9999	-9999	-9999	-9999	-9999	-9999	-9999	-9999	-9999	-9999	-9999	-9999	-9999	-9999	-9999	-9999	-9999	-9999	-9999	-9999	-9999	-9999	-9999	-9999	-9999	-9999	-9999	-9999	-9999	-9999	-9999	-9999	-9999	-9999	-9999	-9999	-9999	-9999	-9999	-9999	-9999	-9999	-9999	-9999	-9999	-9999	-9999	-9999	-9999	-9999	-9999	-9999	-9999	-9999	-9999	-9999	-9999	-9999	-9999	-9999	-9999	-9999	-9999	-9999	-9999
1945	1959	1979	1982	1988	2011	2033	2024	2015	1997	2012	2035	2077	2147	2175	2177	2120	2105	2115	2147	2131	2075	1999	1890	1851	1830	1812	1807	1853	1936	2113	2136	2100	2074	2094	2050	1992	1927	1907	1899	1884	1792	1763	1748	1730	1703	1671	1625	1523	1465	1422	1375	1247	1201	1174	1158	1169	1184	1205	1272	1322	1367	1479	1536	1587	1643	1742	1806	1859	1945	1988	2041	2100	2193	2234	2265	2385	2421	2438	2432	2419	2413	2404	2401	2407	2417	2417	2446	2473	2403	2316	2294	2280	2275	2270	2266	2255	2243	2248	2242	2240	2238	2237	2237	2230	2222	2211	2197	2153	2131	2127	2139	2141	2146	2155	2156	2164	2177	2144	2112	2088	2066	2023	2012	1992	1938	1921	1911	1886	1747	1702	1676	1627	1623	1630	1617	1583	1553	1574	1663	1653	1659	1647	1634	1644	1663	1692	1696	1691	1686	1681	1684	1688	1684	1681	1684	1698	1699	1672	1668	1669	1613	1606	1580	1561	1541	1528	1482	1462	1463	1478	1460	1464	1461	1456	1465	1480	1481	1480	1462	1435	1408	1397	1315	1317	1298	1284	1267	1261	1247	1249	1245	1239	1240	1238	1233	1237	1236	1250	1277	1281	1297	1320	1346	1434	1448	1365	1342	1378	1393	1383	1377	1356	1373	1355	1356	1371	1417	1415	1376	1393	1395	1409	1410	1434	1466	1473	1526	1554	1577	1614	1677	1644	1637	1700	1721	1746	1789	1836	1840	1878	1915	1953	1975	1981	2045	2084	2149	2154	2159	2179	2194	2182	2179	2212	2296	2265	2223	2160	2033	1995	1949	1838	1792	1747	1697	1612	1573	1604	1552	1517	1472	1435	1337	1281	1233	1132	1097	1066	1011	921	895	884	875	877	907	946	995	1024	1067	1084	1106	1115	1100	1177	1220	1268	1374	1432	1491	1535	1586	1607	1636	1693	1723	1754	1778	1847	1881	1911	1966	2002	2037	2066	2056	2081	2060	2043	2040	2042	2057	2137	2181	2234	2328	2372	2412	2442	2504	2520	2514	2383	2325	2279	2216	2126	2081	2039	1997	1920	1881	1853	1798	1763	1728	1691	1627	1606	1592	1585	1582	1576	1568	1499	1499	1504	1503	1505	1512	1511	1504	1506	1493	1441	1417	1390	1367	1326	1298	1284	1252	1227	1198	1179	1139	1127	1116	1078	1064	1041	1022	992	978	958	929	912	894	878	869	871	875	855	822	791	768	753	753	753	753	753	753	753	753	753	753	753	753	753	753	753	753	753	753	753	752	767	822	853	878	886	895	907	920	931	923	918	916	919	919	922	936	941	950	962	966	963	960	916	888	886	933	950	963	976	998	1006	1015	1035	1054	1084	1117	1180	1216	1265	1382	1442	1502	1562	1654	1709	1751	1842	1881	1917	1954	2023	2071	2114	2124	2099	2097	2108	2151	2173	2194	2245	2299	2355	2419	2480	2441	2404	2299	2252	2189	2147	2082	2067	2071	2032	2014	2001	2010	2026	2042	2050	-9999	-9999	-9999	-9999	-9999	-9999	-9999	-9999	-9999	-9999	-9999	-9999	-9999	-9999	-9999	-9999	-9999	-9999	-9999	-9999	-9999	-9999	-9999	-9999	-9999	-9999	-9999	-9999	-9999	-9999	-9999	-9999	-9999	-9999	-9999	-9999	-9999	-9999	-9999	-9999	-9999	-9999	-9999	-9999	-9999	-9999	-9999	-9999	-9999	-9999	-9999	-9999	-9999	-9999	-9999	-9999	-9999	-9999	-9999	-9999	-9999	-9999	-9999	-9999	-9999	-9999	-9999	-9999	-9999	-9999	-9999	-9999	-9999	-9999	-9999	-9999	-9999	-9999	-9999	-9999	-9999	-9999	-9999	-9999	-9999	-9999	-9999	-9999	-9999	-9999	-9999	-9999	-9999
1911	1928	1957	1952	1960	1973	2010	1991	1968	1950	1972	1991	1970	2047	2056	2058	2132	2160	2184	2235	2176	2099	2038	1939	1903	1879	1854	1895	1979	2029	2052	2071	2078	2036	1979	2000	2019	1996	1945	1904	1860	1791	1770	1760	1733	1701	1674	1634	1529	1464	1419	1310	1255	1205	1180	1159	1162	1167	1226	1280	1334	1378	1496	1559	1615	1722	1759	1792	1837	1927	1979	2031	2129	2158	2181	2214	2321	2365	2410	2472	2469	2466	2433	2427	2431	2428	2421	2453	2487	2408	2329	2307	2287	2277	2281	2273	2249	2243	2251	2248	2251	2247	2246	2239	2232	2224	2215	2206	2178	2176	2184	2168	2161	2158	2158	2163	2164	2170	2135	2101	2085	2072	2019	2006	1985	1937	1923	1910	1893	1760	1718	1680	1642	1646	1637	1625	1573	1577	1614	1681	1698	1713	1716	1721	1744	1772	1736	1746	1747	1740	1749	1748	1746	1740	1746	1756	1753	1740	1728	1721	1724	1719	1705	1698	1684	1665	1641	1582	1511	1515	1527	1518	1521	1521	1514	1524	1539	1536	1544	1531	1515	1504	1482	1464	1436	1393	1376	1354	1307	1247	1244	1246	1241	1238	1244	1237	1233	1231	1227	1240	1246	1251	1297	1298	1326	1322	1307	1271	1286	1281	1326	1311	1298	1313	1308	1329	1346	1364	1356	1319	1325	1324	1338	1365	1355	1365	1392	1443	1473	1509	1532	1544	1587	1612	1685	1705	1745	1777	1786	1812	1846	1875	1915	1928	1943	2016	2050	2066	2103	2130	2149	2150	2167	2163	2169	2272	2268	2236	2187	2045	1993	1946	1842	1787	1735	1690	1585	1549	1521	1487	1449	1419	1390	1305	1258	1224	1127	1089	1056	1003	920	893	886	875	881	921	964	1024	1054	1086	1108	1118	1131	1118	1200	1241	1284	1389	1443	1501	1536	1587	1614	1643	1707	1741	1769	1793	1855	1889	1918	1976	2004	2038	2076	2154	2187	2152	2123	2096	2080	2076	2128	2174	2224	2325	2364	2397	2431	2486	2486	2468	2375	2307	2238	2171	2067	2020	1967	1917	1888	1855	1829	1781	1750	1715	1642	1635	1637	1642	1633	1629	1626	1606	1594	1591	1598	1617	1622	1627	1568	1554	1538	1518	1455	1432	1405	1351	1327	1303	1289	1248	1227	1207	1166	1142	1124	1114	1092	1079	1063	1041	995	980	960	936	920	902	885	877	877	880	865	838	821	792	753	753	753	753	753	753	753	753	753	753	753	753	753	753	753	753	753	753	753	753	761	807	840	867	891	890	903	917	930	924	918	915	920	921	923	936	940	950	968	967	964	963	934	905	884	908	938	955	971	998	1008	1015	1033	1048	1079	1100	1159	1202	1254	1344	1407	1469	1528	1632	1682	1733	1814	1857	1901	1943	2007	2041	2101	2157	2128	2119	2127	2153	2180	2201	2232	2274	2343	2407	2511	2491	2474	2373	2309	2276	2243	2177	2145	2124	2065	2037	2024	2027	2027	2039	2060	-9999	-9999	-9999	-9999	-9999	-9999	-9999	-9999	-9999	-9999	-9999	-9999	-9999	-9999	-9999	-9999	-9999	-9999	-9999	-9999	-9999	-9999	-9999	-9999	-9999	-9999	-9999	-9999	-9999	-9999	-9999	-9999	-9999	-9999	-9999	-9999	-9999	-9999	-9999	-9999	-9999	-9999	-9999	-9999	-9999	-9999	-9999	-9999	-9999	-9999	-9999	-9999	-9999	-9999	-9999	-9999	-9999	-9999	-9999	-9999	-9999	-9999	-9999	-9999	-9999	-9999	-9999	-9999	-9999	-9999	-9999	-9999	-9999	-9999	-9999	-9999	-9999	-9999	-9999	-9999	-9999	-9999	-9999	-9999	-9999	-9999	-9999	-9999	-9999	-9999	-9999	-9999	-9999
1852	1852	1889	1929	1927	1917	1993	1975	1936	1898	1939	1939	1919	1984	1992	1998	2078	2098	2127	2185	2171	2120	2067	1989	1951	1928	1906	2006	2029	2022	2009	2006	2026	2031	1964	1961	1970	2010	1986	1939	1895	1850	1827	1798	1737	1707	1673	1639	1540	1479	1424	1310	1263	1227	1188	1160	1160	1165	1219	1275	1339	1404	1528	1589	1641	1733	1786	1814	1857	1937	1990	2033	2087	2111	2132	2182	2280	2316	2378	2474	2481	2481	2486	2452	2442	2429	2414	2413	2453	2412	2346	2322	2301	2279	2289	2274	2240	2254	2257	2256	2258	2255	2250	2241	2232	2224	2219	2199	2189	2190	2197	2184	2170	2160	2175	2183	2177	2163	2130	2111	2103	2082	2065	2051	2031	1946	1915	1887	1871	1808	1776	1716	1665	1656	1630	1620	1599	1622	1645	1679	1691	1708	1721	1738	1759	1784	1836	1854	1849	1858	1870	1870	1799	1808	1813	1813	1810	1781	1784	1801	1796	1784	1759	1738	1719	1698	1675	1617	1602	1624	1648	1651	1647	1647	1569	1578	1597	1610	1616	1610	1617	1587	1589	1568	1505	1445	1421	1399	1360	1322	1291	1283	1281	1277	1274	1251	1248	1237	1225	1225	1229	1227	1256	1261	1261	1242	1246	1239	1235	1228	1226	1218	1208	1205	1236	1252	1228	1286	1280	1269	1272	1277	1286	1306	1303	1331	1352	1400	1420	1451	1485	1516	1569	1604	1667	1683	1705	1710	1750	1778	1801	1830	1859	1885	1956	1988	2028	2046	2091	2116	2132	2144	2155	2162	2144	2149	2221	2231	2126	2065	1991	1930	1832	1783	1731	1637	1597	1560	1513	1441	1417	1394	1372	1295	1246	1211	1122	1079	1043	999	928	894	886	876	890	935	983	1058	1091	1109	1125	1127	1128	1130	1207	1251	1291	1401	1458	1506	1536	1594	1622	1651	1714	1750	1778	1805	1864	1892	1923	1980	2016	2060	2102	2182	2218	2253	2280	2253	2195	2175	2192	2201	2221	2315	2352	2389	2424	2466	2444	2415	2368	2296	2228	2160	2055	2004	1956	1898	1879	1857	1821	1764	1738	1704	1660	1670	1680	1692	1684	1673	1669	1649	1645	1645	1655	1672	1686	1694	1666	1633	1590	1555	1481	1449	1420	1354	1332	1311	1293	1264	1231	1211	1169	1145	1126	1116	1098	1083	1067	1022	1006	990	971	944	932	922	887	884	882	885	876	864	847	778	761	753	753	753	753	753	753	753	753	753	753	753	753	753	753	753	753	753	753	753	774	799	828	859	890	892	903	922	926	926	917	920	929	935	935	933	941	951	972	974	963	964	950	921	894	894	926	950	968	997	1004	1013	1029	1038	1059	1096	1142	1176	1221	1319	1371	1435	1500	1615	1659	1704	1796	1849	1896	1943	2005	2030	2072	2181	2214	2197	2176	2179	2188	2208	2241	2273	2338	2407	2522	2515	2495	2391	2345	2311	2291	2231	2182	2153	2152	2134	2108	2094	2076	2071	2054	-9999	-9999	-9999	-9999	-9999	-9999	-9999	-9999	-9999	-9999	-9999	-9999	-9999	-9999	-9999	-9999	-9999	-9999	-9999	-9999	-9999	-9999	-9999	-9999	-9999	-9999	-9999	-9999	-9999	-9999	-9999	-9999	-9999	-9999	-9999	-9999	-9999	-9999	-9999	-9999	-9999	-9999	-9999	-9999	-9999	-9999	-9999	-9999	-9999	-9999	-9999	-9999	-9999	-9999	-9999	-9999	-9999	-9999	-9999	-9999	-9999	-9999	-9999	-9999	-9999	-9999	-9999	-9999	-9999	-9999	-9999	-9999	-9999	-9999	-9999	-9999	-9999	-9999	-9999	-9999	-9999	-9999	-9999	-9999	-9999	-9999	-9999	-9999	-9999	-9999	-9999	-9999	-9999
1818	1817	1824	1831	1818	1890	1919	1920	1894	1843	1882	1885	1920	1927	1931	1949	2028	2044	2103	2192	2171	2105	2059	2022	2023	2059	2077	2053	2023	1992	1978	1972	1983	2008	1968	1939	1941	1965	1984	1965	1934	1880	1851	1818	1743	1713	1683	1653	1576	1513	1458	1314	1266	1223	1188	1163	1163	1163	1212	1273	1342	1409	1538	1593	1640	1732	1779	1820	1855	1916	1928	1939	1997	2063	2125	2171	2230	2281	2344	2466	2488	2490	2482	2454	2441	2426	2408	2402	2396	2388	2370	2358	2343	2326	2295	2284	2260	2262	2264	2263	2261	2260	2249	2242	2227	2219	2213	2198	2191	2188	2194	2185	2172	2167	2200	2214	2192	2178	2150	2143	2144	2146	2135	2109	2063	1953	1908	1878	1828	1798	1774	1748	1706	1668	1626	1671	1674	1643	1658	1682	1696	1710	1733	1756	1787	1817	1879	1897	1902	1928	1939	1940	1929	1945	1947	1931	1898	1897	1911	1861	1861	1857	1843	1785	1756	1713	1693	1651	1648	1681	1713	1732	1720	1708	1684	1694	1710	1730	1727	1737	1679	1659	1660	1630	1562	1497	1465	1436	1407	1369	1328	1305	1302	1296	1295	1291	1281	1270	1249	1224	1220	1221	1222	1223	1219	1216	1224	1224	1214	1199	1200	1196	1172	1181	1198	1213	1190	1168	1176	1184	1182	1183	1190	1248	1270	1295	1316	1357	1374	1401	1467	1520	1570	1602	1642	1656	1669	1676	1680	1697	1709	1747	1769	1810	1930	1963	2012	2026	2071	2096	2105	2124	2127	2131	2127	2123	2170	2214	2117	2060	1983	1910	1798	1749	1704	1610	1597	1566	1526	1427	1388	1366	1324	1282	1242	1204	1117	1076	1040	973	937	899	888	884	916	964	1065	1088	1130	1139	1153	1141	1130	1164	1213	1259	1305	1417	1469	1512	1564	1592	1622	1652	1713	1743	1775	1836	1865	1895	1925	1995	2037	2087	2131	2207	2247	2280	2281	2269	2254	2250	2261	2262	2266	2317	2342	2380	2419	2425	2400	2362	2360	2310	2228	2156	2049	1995	1945	1880	1861	1844	1820	1765	1736	1724	1754	1769	1779	1786	1781	1772	1716	1702	1701	1704	1708	1724	1743	1751	1693	1649	1609	1568	1497	1461	1430	1385	1352	1327	1299	1272	1246	1213	1171	1146	1128	1117	1099	1083	1070	1028	1012	996	976	947	939	930	903	896	893	894	890	885	862	805	773	765	759	753	753	753	753	753	753	753	753	753	753	753	753	753	753	753	753	753	771	790	815	845	889	898	900	922	923	925	918	922	935	938	939	935	937	946	971	982	974	961	958	937	903	889	910	940	979	994	1004	1012	1026	1036	1054	1112	1135	1159	1186	1265	1324	1393	1501	1588	1631	1678	1774	1834	1882	1972	1996	2017	2057	2159	2216	2240	2231	2222	2231	2245	2298	2346	2413	2470	2558	2546	2526	2438	2390	2373	2363	2270	2224	2188	2206	2197	2172	2135	2108	2087	2083	2077	-9999	-9999	-9999	-9999	-9999	-9999	-9999	-9999	-9999	-9999	-9999	-9999	-9999	-9999	-9999	-9999	-9999	-9999	-9999	-9999	-9999	-9999	-9999	-9999	-9999	-9999	-9999	-9999	-9999	-9999	-9999	-9999	-9999	-9999	-9999	-9999	-9999	-9999	-9999	-9999	-9999	-9999	-9999	-9999	-9999	-9999	-9999	-9999	-9999	-9999	-9999	-9999	-9999	-9999	-9999	-9999	-9999	-9999	-9999	-9999	-9999	-9999	-9999	-9999	-9999	-9999	-9999	-9999	-9999	-9999	-9999	-9999	-9999	-9999	-9999	-9999	-9999	-9999	-9999	-9999	-9999	-9999	-9999	-9999	-9999	-9999	-9999	-9999	-9999	-9999	-9999	-9999
1775	1771	1764	1747	1744	1817	1859	1877	1848	1760	1767	1784	1825	1822	1844	1920	1972	2013	2053	2164	2177	2112	2076	2075	2118	2140	2078	2061	2039	2009	1982	1966	1964	1968	1957	1925	1887	1918	1930	1935	1905	1878	1852	1829	1749	1715	1682	1629	1582	1524	1470	1323	1270	1224	1182	1172	1169	1164	1203	1265	1336	1469	1540	1596	1636	1728	1766	1803	1833	1869	1877	1887	1984	2017	2046	2075	2181	2246	2326	2462	2494	2502	2487	2451	2436	2421	2402	2399	2393	2384	2375	2363	2357	2338	2329	2320	2307	2280	2278	2279	2270	2262	2254	2246	2229	2225	2218	2203	2197	2193	2187	2173	2164	2164	2206	2230	2244	2254	2261	2282	2281	2176	2144	2106	2056	1949	1900	1859	1819	1786	1765	1748	1704	1670	1645	1729	1710	1717	1737	1781	1834	1844	1806	1793	1829	1869	1925	1940	1956	1989	2002	2006	2000	2009	2006	1987	1950	1946	1947	1946	1940	1926	1907	1891	1858	1752	1722	1694	1702	1730	1766	1768	1760	1755	1746	1749	1767	1780	1781	1788	1790	1782	1763	1732	1656	1591	1507	1484	1449	1410	1365	1337	1328	1323	1328	1318	1326	1325	1251	1231	1231	1229	1225	1222	1221	1221	1249	1250	1211	1182	1173	1169	1159	1153	1162	1168	1160	1148	1143	1151	1146	1154	1153	1176	1198	1216	1234	1283	1309	1360	1470	1516	1561	1589	1620	1631	1639	1625	1635	1656	1659	1694	1737	1782	1873	1903	1942	1965	2008	2035	2044	2087	2096	2100	2102	2111	2135	2172	2106	2042	1966	1896	1787	1741	1694	1591	1548	1522	1487	1405	1367	1333	1311	1271	1239	1195	1109	1069	1035	974	939	904	889	891	935	991	1103	1144	1170	1182	1193	1175	1155	1185	1226	1265	1318	1433	1487	1520	1569	1590	1619	1645	1706	1739	1772	1835	1868	1910	1947	2038	2093	2139	2217	2232	2268	2284	2249	2236	2252	2276	2268	2262	2277	2326	2336	2359	2420	2395	2327	2289	2295	2283	2226	2069	2034	1984	1933	1869	1846	1829	1786	1759	1749	1754	1794	1816	1826	1836	1832	1830	1821	1805	1810	1835	1836	1828	1793	1782	1703	1659	1619	1580	1507	1484	1461	1402	1363	1338	1309	1271	1250	1223	1174	1150	1131	1119	1100	1085	1072	1034	1015	1000	983	950	941	932	913	905	900	899	894	886	857	806	820	840	808	789	790	753	753	753	753	753	753	753	753	753	753	753	753	753	753	753	756	777	801	829	876	894	902	922	921	923	920	925	942	943	945	944	939	942	967	982	983	956	959	952	917	889	894	915	971	991	1001	1009	1018	1031	1050	1104	1131	1154	1176	1245	1302	1363	1471	1519	1583	1635	1726	1770	1821	1958	1988	2008	2041	2130	2182	2229	2263	2282	2291	2316	2355	2409	2480	2559	2595	2631	2616	2538	2526	2515	2387	2304	2256	2232	2278	2280	2221	2166	2138	2106	2092	2101	-9999	-9999	-9999	-9999	-9999	-9999	-9999	-9999	-9999	-9999	-9999	-9999	-9999	-9999	-9999	-9999	-9999	-9999	-9999	-9999	-9999	-9999	-9999	-9999	-9999	-9999	-9999	-9999	-9999	-9999	-9999	-9999	-9999	-9999	-9999	-9999	-9999	-9999	-9999	-9999	-9999	-9999	-9999	-9999	-9999	-9999	-9999	-9999	-9999	-9999	-9999	-9999	-9999	-9999	-9999	-9999	-9999	-9999	-9999	-9999	-9999	-9999	-9999	-9999	-9999	-9999	-9999	-9999	-9999	-9999	-9999	-9999	-9999	-9999	-9999	-9999	-9999	-9999	-9999	-9999	-9999	-9999	-9999	-9999	-9999	-9999	-9999	-9999	-9999	-9999	-9999	-9999
1722	1717	1698	1678	1673	1735	1768	1791	1784	1709	1725	1733	1774	1780	1824	1841	1885	1938	1991	2117	2159	2203	2130	2146	2157	2124	2089	2077	2056	2027	1990	1975	1964	1955	1949	1918	1879	1837	1841	1842	1841	1835	1817	1814	1745	1705	1676	1618	1578	1525	1473	1337	1277	1227	1190	1178	1174	1166	1194	1240	1298	1434	1498	1562	1625	1710	1746	1778	1815	1821	1829	1872	1937	1965	2010	2131	2193	2242	2295	2404	2471	2502	2466	2445	2427	2407	2395	2393	2389	2385	2373	2370	2369	2345	2338	2325	2291	2283	2277	2277	2277	2275	2270	2271	2263	2258	2255	2224	2219	2213	2208	2182	2168	2175	2226	2251	2302	2327	2343	2345	2288	2169	2127	2087	2032	1926	1892	1854	1803	1776	1755	1738	1699	1666	1688	1752	1746	1765	1788	1851	1878	1871	1896	1949	2018	2071	2086	2056	2055	2117	2062	2066	2069	2069	2069	2042	2005	1993	1988	1978	1960	1951	1922	1897	1875	1847	1802	1764	1760	1764	1805	1797	1800	1794	1788	1794	1804	1809	1811	1822	1830	1825	1815	1801	1712	1644	1617	1592	1526	1483	1444	1407	1360	1356	1352	1344	1364	1366	1286	1258	1263	1257	1241	1229	1233	1257	1277	1272	1264	1215	1198	1177	1155	1152	1149	1146	1145	1140	1140	1135	1134	1141	1143	1157	1170	1179	1218	1249	1268	1295	1402	1441	1472	1540	1551	1598	1602	1584	1595	1614	1632	1658	1695	1749	1846	1872	1904	1936	1984	2005	2010	2013	2021	2030	2043	2072	2065	2125	2090	2028	1953	1880	1770	1723	1677	1575	1527	1485	1452	1385	1350	1320	1281	1248	1216	1174	1090	1058	1033	963	926	907	894	904	959	1024	1125	1164	1182	1202	1208	1192	1168	1216	1259	1303	1345	1443	1496	1526	1568	1587	1612	1638	1702	1737	1769	1837	1876	1918	1958	2052	2103	2152	2179	2193	2215	2202	2184	2172	2183	2229	2211	2222	2252	2293	2307	2332	2394	2373	2305	2265	2260	2256	2221	2071	2019	1984	1950	1884	1847	1818	1767	1763	1774	1778	1821	1843	1862	1893	1897	1890	1882	1864	1860	1877	1893	1868	1825	1773	1684	1652	1621	1580	1531	1515	1480	1421	1381	1356	1296	1279	1256	1230	1175	1154	1136	1109	1100	1087	1073	1042	1022	1007	974	961	946	938	919	911	907	901	896	886	858	836	854	857	822	815	812	792	753	753	753	753	753	753	753	753	753	753	753	753	753	753	754	772	796	823	866	891	906	919	921	922	920	926	938	951	952	955	946	943	963	979	986	955	956	954	931	892	894	899	954	980	999	1007	1018	1028	1041	1096	1122	1145	1169	1229	1271	1327	1447	1495	1548	1604	1695	1741	1794	1908	1960	1983	2002	2072	2101	2109	2216	2262	2306	2331	2401	2429	2455	2543	2587	2632	2640	2596	2575	2547	2425	2375	2341	2326	2395	2395	2335	2205	2174	2142	2110	2096	-9999	-9999	-9999	-9999	-9999	-9999	-9999	-9999	-9999	-9999	-9999	-9999	-9999	-9999	-9999	-9999	-9999	-9999	-9999	-9999	-9999	-9999	-9999	-9999	-9999	-9999	-9999	-9999	-9999	-9999	-9999	-9999	-9999	-9999	-9999	-9999	-9999	-9999	-9999	-9999	-9999	-9999	-9999	-9999	-9999	-9999	-9999	-9999	-9999	-9999	-9999	-9999	-9999	-9999	-9999	-9999	-9999	-9999	-9999	-9999	-9999	-9999	-9999	-9999	-9999	-9999	-9999	-9999	-9999	-9999	-9999	-9999	-9999	-9999	-9999	-9999	-9999	-9999	-9999	-9999	-9999	-9999	-9999	-9999	-9999	-9999	-9999	-9999	-9999	-9999	-9999	-9999
1598	1563	1560	1568	1568	1598	1681	1695	1697	1674	1670	1696	1721	1755	1763	1784	1867	1924	1974	2086	2145	2206	2279	2217	2185	2151	2085	2056	2049	2031	1997	1976	1958	1945	1938	1915	1870	1797	1798	1800	1805	1805	1795	1771	1715	1684	1654	1588	1556	1518	1473	1347	1286	1236	1198	1188	1180	1170	1194	1235	1281	1393	1454	1524	1587	1665	1692	1711	1719	1751	1812	1850	1906	1960	2020	2128	2167	2206	2260	2412	2478	2504	2463	2441	2427	2409	2397	2397	2399	2383	2384	2385	2376	2351	2343	2328	2296	2290	2282	2279	2281	2280	2286	2297	2288	2284	2278	2256	2250	2261	2279	2261	2263	2235	2266	2299	2362	2406	2378	2320	2257	2157	2114	2069	1958	1912	1883	1846	1777	1748	1726	1697	1687	1688	1717	1774	1783	1799	1843	1875	1882	1898	1965	2027	2083	2120	2166	2125	2106	2199	2199	2216	2227	2208	2171	2139	2047	2033	2030	2016	1985	1977	1937	1894	1873	1855	1830	1779	1777	1796	1829	1832	1844	1846	1836	1839	1846	1833	1837	1845	1855	1851	1849	1842	1780	1728	1677	1644	1560	1523	1512	1440	1440	1437	1437	1420	1438	1455	1405	1306	1306	1301	1273	1263	1279	1295	1309	1300	1300	1259	1253	1238	1192	1186	1186	1170	1156	1148	1149	1141	1133	1135	1138	1146	1151	1154	1184	1218	1238	1272	1357	1394	1425	1495	1508	1522	1532	1529	1534	1553	1573	1594	1666	1722	1813	1840	1878	1931	1959	1978	1986	1985	1991	2001	2034	2046	2041	2071	2075	2010	1936	1794	1745	1711	1664	1563	1511	1467	1397	1367	1335	1308	1264	1231	1203	1107	1073	1048	1026	950	917	894	921	953	975	1029	1119	1164	1197	1209	1229	1209	1186	1226	1281	1321	1354	1445	1495	1523	1557	1578	1604	1635	1708	1747	1775	1847	1886	1925	1964	2033	2073	2107	2130	2155	2166	2157	2140	2127	2141	2118	2134	2162	2186	2229	2245	2306	2366	2347	2286	2243	2229	2225	2211	2110	2056	2015	1976	1913	1863	1823	1785	1799	1815	1832	1877	1895	1910	1935	1951	1946	1938	1924	1921	1920	1898	1857	1814	1762	1688	1657	1642	1605	1584	1554	1521	1458	1418	1378	1304	1283	1263	1235	1183	1160	1138	1108	1098	1085	1071	1041	1025	1010	982	967	958	949	932	923	917	905	898	893	883	874	873	859	788	778	776	780	753	753	753	753	753	753	753	753	753	753	753	753	753	753	753	768	795	836	862	886	907	919	923	921	919	923	937	954	965	972	966	952	956	974	986	960	953	953	909	895	892	892	938	972	997	1012	1022	1032	1048	1074	1099	1126	1150	1199	1252	1301	1422	1467	1519	1575	1671	1727	1781	1881	1937	1953	1971	2033	2043	2051	2109	2150	2193	2239	2309	2338	2421	2507	2556	2607	2617	2571	2556	2540	2468	2424	2432	2396	2449	2422	2362	2304	2287	2249	2197	2138	-9999	-9999	-9999	-9999	-9999	-9999	-9999	-9999	-9999	-9999	-9999	-9999	-9999	-9999	-9999	-9999	-9999	-9999	-9999	-9999	-9999	-9999	-9999	-9999	-9999	-9999	-9999	-9999	-9999	-9999	-9999	-9999	-9999	-9999	-9999	-9999	-9999	-9999	-9999	-9999	-9999	-9999	-9999	-9999	-9999	-9999	-9999	-9999	-9999	-9999	-9999	-9999	-9999	-9999	-9999	-9999	-9999	-9999	-9999	-9999	-9999	-9999	-9999	-9999	-9999	-9999	-9999	-9999	-9999	-9999	-9999	-9999	-9999	-9999	-9999	-9999	-9999	-9999	-9999	-9999	-9999	-9999	-9999	-9999	-9999	-9999	-9999	-9999	-9999	-9999	-9999	-9999
1533	1516	1512	1521	1524	1538	1542	1538	1547	1560	1556	1602	1644	1707	1719	1812	1860	1917	1966	2096	2144	2182	2311	2295	2258	2209	2095	2057	2032	1993	1984	1969	1936	1904	1921	1908	1825	1768	1752	1756	1771	1773	1769	1721	1696	1666	1635	1570	1543	1504	1449	1345	1289	1246	1210	1196	1185	1175	1193	1229	1271	1368	1423	1483	1556	1635	1654	1663	1687	1719	1744	1806	1886	1916	1965	2086	2138	2194	2257	2409	2475	2505	2459	2440	2426	2418	2416	2418	2415	2392	2395	2391	2380	2373	2356	2335	2315	2307	2289	2286	2285	2291	2306	2315	2310	2302	2287	2263	2259	2292	2304	2275	2270	2284	2319	2379	2388	2313	2282	2281	2222	2130	2095	2053	1946	1903	1874	1834	1756	1737	1718	1709	1717	1725	1742	1787	1808	1830	1852	1865	1890	1904	2004	2060	2099	2167	2195	2189	2149	2247	2292	2318	2319	2265	2227	2174	2089	2068	2070	2051	2031	2005	1946	1894	1875	1857	1811	1797	1805	1822	1847	1850	1857	1862	1864	1871	1881	1884	1887	1895	1899	1900	1903	1899	1841	1809	1750	1699	1590	1571	1570	1497	1484	1493	1493	1463	1473	1502	1467	1428	1413	1394	1394	1376	1400	1348	1346	1330	1340	1322	1306	1301	1244	1235	1229	1215	1206	1187	1183	1164	1177	1166	1160	1154	1142	1135	1174	1196	1216	1244	1315	1350	1384	1445	1464	1482	1503	1512	1516	1530	1556	1570	1609	1656	1752	1798	1843	1881	1934	1949	1960	1965	1969	1979	2016	2035	2028	2040	2057	1991	1916	1771	1727	1672	1622	1535	1487	1445	1369	1350	1321	1300	1255	1215	1191	1107	1056	1032	1012	963	918	892	935	983	1030	1068	1133	1190	1240	1275	1246	1219	1196	1234	1294	1339	1403	1450	1496	1524	1553	1575	1605	1701	1735	1755	1788	1824	1836	1852	1908	1947	2032	2056	2088	2119	2108	2114	2091	2088	2103	2087	2105	2134	2178	2206	2225	2249	2301	2310	2249	2203	2196	2196	2198	2157	2106	2051	2006	1920	1866	1821	1807	1821	1836	1854	1897	1911	1931	1968	2000	2027	2052	1994	1944	1933	1859	1825	1794	1758	1700	1689	1686	1627	1600	1568	1538	1471	1433	1400	1329	1304	1280	1250	1205	1178	1152	1110	1100	1088	1075	1045	1031	1015	987	975	964	957	940	929	923	908	901	897	888	876	869	841	798	778	763	755	753	753	753	753	753	753	753	753	753	753	753	753	753	753	753	761	782	826	858	880	902	917	922	922	921	921	932	948	968	978	974	955	957	963	975	972	954	950	945	904	894	895	919	953	987	1014	1017	1030	1046	1070	1089	1114	1159	1185	1214	1248	1355	1403	1443	1553	1614	1704	1753	1860	1899	1918	1959	1979	1996	1996	2061	2101	2148	2239	2271	2310	2345	2441	2496	2536	2486	2452	2509	2512	2520	2502	2505	2487	2493	2458	2397	2332	2311	2297	2269	2172	2150	-9999	-9999	-9999	-9999	-9999	-9999	-9999	-9999	-9999	-9999	-9999	-9999	-9999	-9999	-9999	-9999	-9999	-9999	-9999	-9999	-9999	-9999	-9999	-9999	-9999	-9999	-9999	-9999	-9999	-9999	-9999	-9999	-9999	-9999	-9999	-9999	-9999	-9999	-9999	-9999	-9999	-9999	-9999	-9999	-9999	-9999	-9999	-9999	-9999	-9999	-9999	-9999	-9999	-9999	-9999	-9999	-9999	-9999	-9999	-9999	-9999	-9999	-9999	-9999	-9999	-9999	-9999	-9999	-9999	-9999	-9999	-9999	-9999	-9999	-9999	-9999	-9999	-9999	-9999	-9999	-9999	-9999	-9999	-9999	-9999	-9999	-9999	-9999	-9999	-9999	-9999
1489	1482	1479	1485	1485	1486	1484	1475	1492	1499	1504	1536	1615	1665	1723	1821	1875	1924	1954	2049	2085	2123	2277	2373	2374	2276	2105	2067	2037	1988	1965	1946	1929	1878	1872	1858	1822	1777	1719	1681	1726	1726	1727	1687	1668	1645	1617	1542	1497	1457	1360	1321	1281	1250	1222	1206	1184	1174	1181	1207	1241	1325	1399	1463	1574	1597	1595	1598	1654	1688	1749	1810	1848	1907	1967	2090	2154	2211	2349	2407	2426	2441	2460	2441	2429	2432	2434	2434	2423	2406	2404	2394	2382	2381	2360	2346	2326	2315	2308	2310	2320	2331	2335	2324	2320	2307	2287	2266	2265	2302	2325	2299	2285	2292	2339	2376	2345	2263	2238	2202	2158	2080	2050	2021	1937	1896	1863	1824	1750	1730	1726	1735	1746	1756	1769	1814	1825	1833	1858	1898	1935	1964	2099	2161	2168	2196	2223	2213	2208	2264	2331	2374	2373	2323	2299	2232	2129	2103	2092	2085	2062	2028	1989	1933	1908	1885	1846	1842	1825	1840	1883	1878	1881	1892	1891	1900	1903	1910	1927	1938	1930	1927	1925	1925	1914	1888	1830	1719	1691	1668	1605	1558	1529	1535	1513	1511	1520	1547	1512	1481	1469	1458	1465	1438	1465	1435	1413	1400	1427	1422	1414	1356	1298	1305	1293	1266	1255	1241	1229	1214	1219	1212	1219	1221	1195	1154	1142	1154	1166	1184	1253	1285	1315	1410	1436	1465	1485	1501	1500	1510	1542	1569	1607	1648	1737	1781	1811	1847	1865	1888	1913	1926	1930	1946	2000	2022	2012	2018	2032	1968	1892	1754	1709	1661	1612	1521	1484	1442	1364	1335	1309	1287	1267	1220	1170	1108	1055	1020	1000	970	933	899	940	1003	1050	1074	1138	1196	1248	1286	1257	1241	1229	1239	1280	1327	1400	1441	1478	1518	1549	1574	1606	1676	1703	1712	1741	1763	1776	1798	1859	1899	1929	1946	1997	1985	1991	1994	2043	2052	2070	2070	2083	2110	2152	2183	2201	2224	2275	2289	2244	2177	2187	2192	2176	2144	2115	2077	1980	1920	1861	1820	1828	1839	1855	1893	1914	1930	1949	1979	2002	2029	2030	1967	1911	1880	1816	1795	1781	1778	1787	1740	1723	1652	1616	1585	1523	1484	1448	1418	1344	1315	1292	1237	1213	1186	1161	1119	1103	1088	1074	1049	1038	1020	992	983	970	961	951	937	928	912	905	900	888	871	859	856	857	844	816	783	753	753	753	753	753	753	753	753	753	753	753	753	753	753	753	757	778	822	837	858	887	913	917	923	921	921	926	939	965	983	981	959	957	960	970	975	959	950	944	938	926	906	914	936	972	1017	1018	1027	1040	1063	1080	1103	1150	1173	1199	1231	1318	1365	1409	1517	1580	1647	1704	1772	1788	1803	1848	1928	1936	1954	2029	2068	2110	2195	2236	2275	2313	2420	2473	2474	2440	2415	2392	2400	2402	2401	2428	2518	2561	2486	2436	2375	2362	2340	2260	2232	2184	-9999	-9999	-9999	-9999	-9999	-9999	-9999	-9999	-9999	-9999	-9999	-9999	-9999	-9999	-9999	-9999	-9999	-9999	-9999	-9999	-9999	-9999	-9999	-9999	-9999	-9999	-9999	-9999	-9999	-9999	-9999	-9999	-9999	-9999	-9999	-9999	-9999	-9999	-9999	-9999	-9999	-9999	-9999	-9999	-9999	-9999	-9999	-9999	-9999	-9999	-9999	-9999	-9999	-9999	-9999	-9999	-9999	-9999	-9999	-9999	-9999	-9999	-9999	-9999	-9999	-9999	-9999	-9999	-9999	-9999	-9999	-9999	-9999	-9999	-9999	-9999	-9999	-9999	-9999	-9999	-9999	-9999	-9999	-9999	-9999	-9999	-9999	-9999	-9999	-9999	-9999
1479	1471	1460	1448	1456	1448	1438	1429	1453	1459	1467	1481	1582	1621	1665	1779	1831	1863	1887	1934	1977	2055	2217	2303	2403	2312	2130	2086	2050	1991	1963	1939	1916	1857	1845	1833	1794	1766	1721	1674	1655	1655	1635	1616	1589	1562	1572	1495	1445	1407	1331	1298	1272	1249	1239	1216	1196	1174	1178	1191	1219	1299	1352	1414	1499	1497	1482	1525	1628	1675	1706	1796	1855	1920	1984	2105	2168	2225	2331	2351	2364	2399	2439	2451	2448	2452	2451	2449	2441	2419	2410	2399	2383	2378	2363	2353	2334	2325	2320	2336	2343	2347	2345	2327	2318	2305	2288	2285	2307	2335	2363	2330	2309	2313	2354	2354	2305	2214	2203	2189	2123	2082	2039	2005	1941	1915	1889	1855	1776	1748	1769	1813	1784	1790	1802	1834	1849	1842	1891	1946	1997	2030	2160	2202	2242	2264	2300	2305	2295	2315	2360	2442	2529	2419	2361	2276	2169	2140	2127	2115	2095	2052	2020	1958	1928	1907	1874	1867	1875	1896	1935	1944	1924	1961	1971	1924	1923	1946	1971	1987	1988	1983	1974	1955	1922	1879	1832	1753	1738	1699	1668	1636	1613	1630	1592	1600	1569	1607	1582	1556	1537	1536	1524	1514	1525	1491	1465	1445	1478	1474	1463	1456	1425	1439	1453	1411	1390	1286	1274	1260	1262	1260	1267	1275	1262	1228	1141	1131	1144	1185	1220	1253	1281	1358	1391	1417	1458	1469	1476	1493	1541	1577	1615	1673	1704	1742	1761	1799	1821	1851	1896	1902	1906	1921	1967	1990	1957	1979	1968	1911	1869	1746	1699	1650	1568	1523	1485	1444	1364	1330	1300	1273	1258	1236	1169	1102	1051	1012	989	956	940	915	925	997	1039	1058	1133	1192	1247	1291	1279	1275	1262	1251	1268	1308	1385	1411	1431	1440	1458	1475	1496	1600	1619	1633	1649	1690	1710	1742	1807	1839	1864	1888	1912	1931	1936	1947	1960	1978	2003	2021	2037	2049	2101	2157	2172	2193	2243	2266	2236	2164	2174	2167	2149	2118	2095	2068	1977	1923	1880	1840	1860	1878	1893	1944	1936	1952	1968	1994	2008	2044	2035	1959	1895	1867	1829	1811	1795	1810	1831	1823	1786	1698	1650	1616	1531	1497	1459	1425	1352	1317	1295	1245	1220	1197	1171	1122	1104	1090	1060	1048	1040	1032	1006	990	983	961	958	945	934	919	910	902	872	869	872	872	866	849	827	778	755	753	753	753	753	753	753	753	753	753	753	753	753	753	753	755	775	818	833	851	876	918	914	922	921	923	924	929	953	960	986	968	959	961	969	979	969	952	946	942	930	907	909	934	971	1011	1017	1024	1034	1058	1075	1091	1142	1163	1188	1221	1292	1334	1377	1484	1540	1613	1676	1713	1723	1738	1801	1850	1912	1974	2080	2132	2144	2166	2204	2242	2296	2404	2456	2428	2400	2371	2340	2333	2331	2339	2375	2502	2574	2602	2556	2512	2469	2400	2335	2283	2247	-9999	-9999	-9999	-9999	-9999	-9999	-9999	-9999	-9999	-9999	-9999	-9999	-9999	-9999	-9999	-9999	-9999	-9999	-9999	-9999	-9999	-9999	-9999	-9999	-9999	-9999	-9999	-9999	-9999	-9999	-9999	-9999	-9999	-9999	-9999	-9999	-9999	-9999	-9999	-9999	-9999	-9999	-9999	-9999	-9999	-9999	-9999	-9999	-9999	-9999	-9999	-9999	-9999	-9999	-9999	-9999	-9999	-9999	-9999	-9999	-9999	-9999	-9999	-9999	-9999	-9999	-9999	-9999	-9999	-9999	-9999	-9999	-9999	-9999	-9999	-9999	-9999	-9999	-9999	-9999	-9999	-9999	-9999	-9999	-9999	-9999	-9999	-9999	-9999	-9999	-9999
1513	1509	1495	1493	1460	1436	1420	1402	1408	1416	1440	1489	1531	1577	1625	1739	1772	1802	1850	1893	1949	2019	2187	2279	2391	2299	2215	2141	2084	2014	1986	1948	1915	1841	1820	1808	1768	1751	1720	1669	1614	1606	1595	1572	1551	1530	1486	1403	1372	1342	1296	1286	1280	1263	1262	1239	1210	1177	1177	1180	1193	1256	1306	1366	1450	1448	1478	1541	1639	1689	1738	1838	1893	1949	2000	2110	2163	2210	2279	2280	2307	2354	2378	2420	2449	2456	2453	2451	2445	2439	2430	2423	2422	2461	2458	2375	2360	2347	2344	2361	2364	2360	2354	2333	2328	2318	2312	2314	2333	2349	2374	2359	2339	2337	2362	2321	2268	2195	2185	2180	2125	2077	2032	1995	1941	1926	1906	1823	1779	1782	1820	1854	1862	1862	1872	1883	1883	1875	1929	1982	2022	2103	2168	2211	2266	2361	2391	2382	2385	2395	2437	2486	2565	2509	2456	2334	2282	2234	2212	2164	2118	2082	2013	1983	1956	1933	1901	1901	1911	1934	1941	1959	1955	1989	2004	2002	2006	2046	2064	2077	2087	2039	2022	1978	1922	1888	1856	1797	1762	1725	1707	1666	1655	1672	1628	1641	1682	1726	1736	1708	1687	1659	1582	1580	1581	1533	1509	1491	1538	1536	1522	1512	1486	1497	1503	1462	1439	1409	1373	1332	1332	1326	1309	1299	1285	1266	1199	1154	1124	1157	1187	1219	1248	1338	1366	1391	1434	1453	1458	1459	1490	1512	1550	1565	1595	1685	1720	1751	1779	1816	1857	1869	1880	1890	1932	1947	1919	1944	1943	1896	1846	1733	1685	1641	1556	1527	1488	1442	1363	1321	1287	1242	1244	1243	1193	1113	1074	1028	979	968	944	909	915	961	1000	1059	1094	1145	1234	1296	1296	1305	1275	1276	1281	1302	1353	1375	1391	1430	1441	1453	1467	1496	1509	1526	1555	1578	1599	1625	1743	1780	1812	1837	1869	1882	1885	1899	1913	1938	1965	1994	2006	2023	2073	2103	2121	2143	2193	2222	2230	2148	2149	2136	2123	2097	2076	2048	1971	1928	1889	1851	1879	1904	1923	1969	1987	2006	2016	2046	2065	2095	2056	1984	1909	1880	1858	1836	1828	1858	1868	1842	1805	1708	1662	1619	1531	1498	1467	1429	1380	1349	1320	1273	1230	1208	1180	1127	1109	1093	1061	1046	1036	1032	1006	994	985	964	959	957	946	935	922	895	906	891	888	882	870	857	830	783	758	753	753	753	753	753	753	753	753	753	753	753	753	753	753	753	772	812	830	850	908	922	913	920	923	921	926	934	943	954	970	979	979	968	972	982	973	955	947	945	925	913	908	926	967	1008	1013	1021	1047	1058	1077	1087	1129	1150	1169	1217	1251	1291	1354	1452	1509	1567	1645	1650	1669	1714	1815	1872	1936	2007	2129	2193	2205	2176	2192	2223	2286	2371	2361	2353	2352	2324	2294	2283	2278	2293	2338	2465	2551	2619	2616	2503	2433	2375	2325	2320	2287	-9999	-9999	-9999	-9999	-9999	-9999	-9999	-9999	-9999	-9999	-9999	-9999	-9999	-9999	-9999	-9999	-9999	-9999	-9999	-9999	-9999	-9999	-9999	-9999	-9999	-9999	-9999	-9999	-9999	-9999	-9999	-9999	-9999	-9999	-9999	-9999	-9999	-9999	-9999	-9999	-9999	-9999	-9999	-9999	-9999	-9999	-9999	-9999	-9999	-9999	-9999	-9999	-9999	-9999	-9999	-9999	-9999	-9999	-9999	-9999	-9999	-9999	-9999	-9999	-9999	-9999	-9999	-9999	-9999	-9999	-9999	-9999	-9999	-9999	-9999	-9999	-9999	-9999	-9999	-9999	-9999	-9999	-9999	-9999	-9999	-9999	-9999	-9999	-9999	-9999	-9999
1567	1565	1549	1541	1500	1472	1449	1427	1394	1400	1406	1436	1465	1498	1535	1633	1715	1750	1822	1876	1928	2000	2167	2272	2355	2362	2280	2194	2116	2023	1979	1938	1867	1833	1798	1772	1740	1722	1712	1616	1589	1574	1566	1536	1521	1495	1408	1375	1350	1331	1320	1309	1307	1329	1316	1293	1256	1193	1184	1177	1195	1225	1267	1318	1390	1418	1477	1594	1634	1680	1730	1834	1889	1942	1971	2068	2101	2110	2157	2165	2258	2302	2329	2375	2425	2461	2460	2461	2459	2452	2444	2464	2523	2512	2487	2459	2411	2399	2390	2381	2378	2380	2365	2345	2338	2336	2338	2343	2357	2372	2385	2370	2348	2363	2369	2320	2275	2199	2172	2155	2103	2057	2016	1983	1935	1921	1898	1814	1789	1829	1873	1879	1881	1891	1895	1894	1887	1881	1940	1982	2006	2071	2119	2170	2251	2361	2424	2443	2481	2490	2513	2550	2626	2591	2527	2400	2335	2285	2250	2197	2179	2157	2079	2055	2041	2015	1935	1938	1951	1951	1947	1964	1986	2030	2049	2048	2098	2121	2137	2148	2138	2095	2026	1975	1960	1931	1907	1827	1782	1755	1746	1707	1685	1711	1668	1683	1739	1848	1858	1838	1788	1760	1745	1729	1651	1622	1590	1579	1642	1599	1594	1586	1547	1565	1564	1516	1475	1455	1424	1368	1357	1347	1321	1308	1287	1266	1232	1217	1182	1113	1160	1185	1216	1306	1335	1366	1410	1430	1431	1428	1450	1471	1499	1512	1542	1574	1602	1662	1701	1737	1782	1834	1843	1857	1891	1909	1886	1906	1923	1891	1842	1733	1683	1643	1557	1520	1484	1436	1343	1302	1263	1214	1210	1231	1223	1138	1086	1041	988	977	955	912	912	946	987	1059	1093	1138	1194	1288	1314	1333	1302	1313	1315	1343	1400	1415	1434	1480	1492	1501	1505	1510	1514	1518	1528	1546	1565	1589	1654	1698	1732	1755	1763	1780	1839	1862	1879	1907	1956	1969	1982	1998	2043	2078	2100	2148	2175	2202	2218	2160	2127	2106	2105	2078	2051	2038	1966	1930	1894	1881	1903	1927	1947	1992	2010	2024	2048	2069	2098	2124	2124	2066	2003	1951	1919	1931	1954	1907	1895	1859	1819	1712	1666	1617	1557	1520	1489	1453	1393	1364	1337	1288	1257	1226	1199	1143	1120	1100	1064	1047	1033	1029	1010	997	986	967	962	958	953	943	927	900	922	921	915	903	881	869	853	780	757	753	753	753	753	753	753	753	753	753	753	753	753	753	753	752	758	798	817	841	876	921	912	916	923	919	922	934	942	950	957	975	990	980	968	977	976	967	940	930	920	931	929	918	957	1004	1008	1019	1045	1060	1075	1085	1123	1140	1158	1200	1234	1274	1313	1398	1425	1454	1556	1644	1681	1739	1854	1897	1948	2084	2144	2206	2251	2218	2227	2262	2342	2319	2303	2291	2234	2219	2212	2217	2235	2281	2323	2442	2506	2573	2526	2447	2403	2373	2332	2320	2292	2246	-9999	-9999	-9999	-9999	-9999	-9999	-9999	-9999	-9999	-9999	-9999	-9999	-9999	-9999	-9999	-9999	-9999	-9999	-9999	-9999	-9999	-9999	-9999	-9999	-9999	-9999	-9999	-9999	-9999	-9999	-9999	-9999	-9999	-9999	-9999	-9999	-9999	-9999	-9999	-9999	-9999	-9999	-9999	-9999	-9999	-9999	-9999	-9999	-9999	-9999	-9999	-9999	-9999	-9999	-9999	-9999	-9999	-9999	-9999	-9999	-9999	-9999	-9999	-9999	-9999	-9999	-9999	-9999	-9999	-9999	-9999	-9999	-9999	-9999	-9999	-9999	-9999	-9999	-9999	-9999	-9999	-9999	-9999	-9999	-9999	-9999	-9999	-9999	-9999	-9999
1656	1607	1595	1584	1541	1528	1503	1470	1411	1393	1390	1413	1435	1460	1489	1598	1661	1727	1831	1887	1942	2003	2150	2230	2288	2387	2363	2257	2158	2032	1983	1943	1886	1852	1810	1773	1727	1712	1697	1617	1584	1559	1530	1488	1495	1467	1394	1377	1359	1346	1353	1344	1347	1374	1355	1323	1285	1208	1194	1184	1197	1214	1237	1256	1358	1427	1478	1579	1623	1673	1722	1825	1869	1906	1995	2037	2041	2048	2100	2122	2161	2204	2258	2313	2363	2492	2482	2478	2467	2465	2464	2506	2527	2499	2490	2456	2434	2427	2410	2388	2387	2385	2373	2369	2383	2406	2414	2416	2391	2395	2400	2383	2360	2344	2339	2326	2292	2202	2171	2150	2082	2045	2008	1964	1899	1882	1864	1853	1887	1893	1927	1912	1902	1907	1908	1900	1892	1887	1936	1965	1987	2069	2108	2142	2177	2291	2344	2389	2493	2536	2595	2626	2708	2666	2594	2438	2383	2334	2293	2251	2238	2227	2131	2100	2086	2069	2030	2029	2030	1989	1986	2000	2010	2086	2106	2119	2169	2197	2217	2220	2155	2082	2026	2008	1988	1961	1943	1863	1844	1840	1824	1797	1791	1749	1698	1722	1831	1950	1968	1940	1908	1842	1809	1786	1696	1666	1630	1616	1687	1717	1721	1699	1672	1687	1679	1561	1524	1497	1431	1415	1391	1369	1325	1304	1281	1243	1226	1211	1188	1105	1107	1129	1200	1232	1265	1289	1375	1390	1396	1407	1418	1434	1446	1469	1502	1532	1556	1614	1663	1695	1747	1753	1756	1768	1814	1827	1821	1843	1900	1889	1843	1733	1677	1634	1541	1494	1456	1413	1328	1287	1249	1204	1201	1197	1198	1127	1073	1033	972	970	951	920	914	942	980	1063	1101	1146	1189	1285	1316	1325	1308	1330	1358	1390	1451	1481	1511	1567	1580	1550	1560	1561	1556	1551	1544	1542	1546	1563	1627	1655	1676	1698	1708	1737	1755	1792	1820	1857	1895	1912	1963	1977	2016	2052	2077	2129	2157	2177	2203	2198	2147	2106	2092	2067	2038	2014	1958	1933	1903	1906	1928	1958	1965	2014	2030	2048	2066	2087	2119	2154	2162	2105	2037	1955	1954	1981	2007	1968	1924	1879	1782	1734	1699	1638	1575	1536	1497	1437	1407	1380	1353	1300	1272	1237	1179	1152	1129	1107	1068	1051	1037	1019	1013	1007	991	972	967	962	953	947	933	906	934	932	925	915	887	876	863	777	753	753	753	753	753	753	753	753	753	753	753	753	753	753	753	752	760	795	816	838	877	896	912	909	912	915	919	934	942	956	962	985	995	991	970	970	980	976	939	937	937	942	941	921	938	987	1005	1019	1045	1059	1068	1086	1119	1135	1153	1190	1222	1261	1293	1361	1399	1449	1580	1660	1726	1777	1877	1926	1974	2067	2112	2184	2234	2285	2287	2312	2303	2269	2250	2230	2185	2178	2182	2190	2220	2257	2298	2418	2491	2553	2489	2449	2411	2386	2344	2331	2321	2277	-9999	-9999	-9999	-9999	-9999	-9999	-9999	-9999	-9999	-9999	-9999	-9999	-9999	-9999	-9999	-9999	-9999	-9999	-9999	-9999	-9999	-9999	-9999	-9999	-9999	-9999	-9999	-9999	-9999	-9999	-9999	-9999	-9999	-9999	-9999	-9999	-9999	-9999	-9999	-9999	-9999	-9999	-9999	-9999	-9999	-9999	-9999	-9999	-9999	-9999	-9999	-9999	-9999	-9999	-9999	-9999	-9999	-9999	-9999	-9999	-9999	-9999	-9999	-9999	-9999	-9999	-9999	-9999	-9999	-9999	-9999	-9999	-9999	-9999	-9999	-9999	-9999	-9999	-9999	-9999	-9999	-9999	-9999	-9999	-9999	-9999	-9999	-9999	-9999	-9999
1690	1679	1666	1658	1640	1616	1586	1477	1441	1416	1388	1400	1418	1437	1479	1608	1649	1706	1823	1877	1919	1968	2048	2119	2181	2333	2385	2349	2222	2048	1999	1957	1898	1869	1835	1792	1734	1710	1688	1620	1591	1566	1529	1480	1463	1455	1460	1448	1427	1416	1395	1397	1406	1427	1397	1357	1311	1227	1206	1188	1196	1209	1222	1239	1326	1392	1453	1553	1603	1644	1668	1787	1827	1872	1956	1974	1980	1996	2042	2068	2103	2177	2230	2293	2343	2484	2517	2509	2488	2486	2491	2500	2503	2501	2495	2475	2454	2444	2427	2400	2401	2391	2382	2383	2406	2426	2455	2462	2467	2453	2432	2387	2344	2279	2292	2282	2249	2215	2182	2150	2071	2032	1989	1902	1882	1874	1863	1879	1922	1952	1962	1958	1945	1937	1915	1902	1894	1911	1924	1944	1962	2046	2084	2110	2187	2247	2305	2353	2463	2502	2559	2619	2724	2752	2680	2593	2562	2410	2373	2324	2320	2287	2209	2157	2138	2131	2092	2056	2050	2039	2034	2054	2108	2138	2176	2240	2341	2350	2280	2260	2148	2086	2051	2042	2023	1987	1952	1896	1881	1897	1843	1823	1817	1799	1786	1800	1893	2104	2139	2118	2011	1911	1870	1842	1732	1699	1670	1662	1736	1770	1778	1761	1743	1756	1742	1678	1632	1579	1529	1499	1461	1386	1326	1298	1278	1242	1221	1200	1182	1114	1101	1115	1163	1190	1220	1241	1295	1315	1333	1341	1346	1360	1375	1442	1463	1486	1530	1578	1625	1652	1710	1717	1723	1755	1775	1791	1788	1811	1840	1863	1762	1683	1616	1559	1496	1452	1410	1344	1307	1266	1229	1198	1194	1190	1165	1123	1066	1025	967	951	939	909	929	951	976	1062	1105	1149	1185	1278	1308	1313	1312	1342	1370	1406	1468	1506	1545	1605	1625	1639	1644	1646	1642	1633	1625	1575	1565	1559	1592	1612	1632	1655	1671	1696	1718	1763	1797	1827	1867	1885	1905	1925	1956	1993	2023	2083	2132	2153	2176	2212	2179	2120	2087	2060	2028	2003	1956	1932	1906	1917	1941	1971	2001	2063	2089	2109	2131	2141	2136	2177	2196	2138	2084	1998	1993	2017	2047	1971	1917	1880	1811	1775	1734	1693	1607	1579	1546	1477	1450	1396	1368	1314	1286	1253	1191	1162	1137	1116	1071	1052	1038	1017	1011	1008	992	974	968	967	956	951	943	913	943	945	933	910	895	879	867	774	753	753	753	753	753	753	753	753	753	753	753	753	753	753	753	753	777	799	820	844	889	901	908	910	913	919	928	941	959	976	991	997	995	1000	974	968	975	965	950	939	936	943	944	932	928	985	1005	1018	1044	1052	1064	1079	1112	1128	1145	1191	1220	1250	1279	1354	1406	1461	1587	1644	1706	1756	1849	1899	1954	2047	2089	2135	2187	2201	2204	2202	2202	2219	2197	2172	2139	2145	2151	2182	2212	2240	2272	2402	2455	2529	2492	2459	2450	2431	2386	2376	2375	2381	-9999	-9999	-9999	-9999	-9999	-9999	-9999	-9999	-9999	-9999	-9999	-9999	-9999	-9999	-9999	-9999	-9999	-9999	-9999	-9999	-9999	-9999	-9999	-9999	-9999	-9999	-9999	-9999	-9999	-9999	-9999	-9999	-9999	-9999	-9999	-9999	-9999	-9999	-9999	-9999	-9999	-9999	-9999	-9999	-9999	-9999	-9999	-9999	-9999	-9999	-9999	-9999	-9999	-9999	-9999	-9999	-9999	-9999	-9999	-9999	-9999	-9999	-9999	-9999	-9999	-9999	-9999	-9999	-9999	-9999	-9999	-9999	-9999	-9999	-9999	-9999	-9999	-9999	-9999	-9999	-9999	-9999	-9999	-9999	-9999	-9999	-9999	-9999	-9999	-9999
1721	1711	1694	1688	1662	1641	1617	1540	1504	1465	1431	1382	1388	1402	1504	1576	1623	1683	1787	1831	1879	1956	2026	2118	2211	2300	2363	2307	2138	2077	2023	1978	1918	1893	1879	1780	1754	1726	1691	1632	1608	1577	1502	1486	1478	1482	1502	1493	1484	1499	1504	1549	1574	1500	1447	1400	1329	1253	1223	1193	1192	1202	1206	1216	1300	1354	1416	1527	1562	1596	1651	1739	1761	1788	1818	1844	1871	1897	1989	2024	2074	2175	2241	2301	2345	2485	2530	2516	2495	2490	2488	2494	2499	2496	2492	2486	2475	2463	2447	2415	2414	2401	2395	2405	2435	2457	2509	2525	2511	2468	2427	2373	2326	2263	2241	2223	2189	2175	2166	2130	2054	2011	1972	1891	1878	1879	1885	1908	1935	1953	1963	1953	1940	1932	1918	1910	1909	1922	1935	1940	1946	1999	2058	2082	2158	2207	2264	2312	2420	2462	2514	2636	2685	2741	2759	2723	2669	2625	2469	2444	2432	2403	2313	2212	2191	2171	2138	2105	2091	2077	2079	2122	2163	2169	2198	2259	2384	2369	2327	2292	2179	2114	2104	2075	2067	2006	1980	1933	1921	1935	1887	1860	1842	1816	1803	1845	1946	2098	2157	2188	2159	2066	2007	1942	1807	1780	1711	1698	1777	1828	1840	1827	1819	1821	1807	1742	1686	1612	1570	1526	1493	1444	1367	1337	1306	1262	1237	1202	1183	1124	1099	1102	1138	1161	1185	1197	1252	1273	1299	1318	1320	1330	1346	1373	1384	1401	1459	1501	1540	1616	1672	1681	1693	1716	1739	1756	1763	1771	1799	1825	1706	1636	1572	1514	1411	1369	1337	1276	1245	1219	1210	1194	1197	1191	1168	1136	1067	1011	960	945	930	914	948	956	972	1039	1085	1127	1208	1243	1275	1293	1320	1350	1381	1446	1479	1522	1562	1630	1661	1683	1699	1708	1701	1692	1673	1657	1639	1623	1614	1609	1611	1623	1644	1673	1717	1739	1770	1790	1836	1853	1881	1916	1936	1968	1998	2062	2092	2117	2138	2182	2168	2111	2039	2038	2015	1995	1952	1925	1908	1933	1951	1974	2007	2083	2114	2134	2160	2180	2199	2222	2267	2232	2185	2106	2040	2051	2068	1983	1932	1901	1843	1801	1759	1709	1637	1600	1579	1502	1464	1434	1404	1337	1312	1280	1223	1189	1149	1126	1080	1063	1043	1017	1009	1006	995	978	969	968	960	956	948	941	945	955	943	928	910	884	868	779	753	753	753	753	753	753	753	753	753	753	753	753	753	753	753	752	776	804	829	845	891	904	910	912	919	925	939	948	961	978	998	1004	1002	1002	996	976	969	971	959	941	936	949	948	946	943	978	1002	1016	1041	1047	1063	1091	1110	1123	1138	1173	1196	1220	1289	1336	1382	1429	1563	1617	1675	1776	1824	1879	1930	2024	2067	2108	2132	2124	2139	2138	2153	2114	2084	2081	2101	2124	2153	2194	2214	2241	2317	2373	2443	2522	2532	2480	2471	2457	2416	2408	2397	2405	-9999	-9999	-9999	-9999	-9999	-9999	-9999	-9999	-9999	-9999	-9999	-9999	-9999	-9999	-9999	-9999	-9999	-9999	-9999	-9999	-9999	-9999	-9999	-9999	-9999	-9999	-9999	-9999	-9999	-9999	-9999	-9999	-9999	-9999	-9999	-9999	-9999	-9999	-9999	-9999	-9999	-9999	-9999	-9999	-9999	-9999	-9999	-9999	-9999	-9999	-9999	-9999	-9999	-9999	-9999	-9999	-9999	-9999	-9999	-9999	-9999	-9999	-9999	-9999	-9999	-9999	-9999	-9999	-9999	-9999	-9999	-9999	-9999	-9999	-9999	-9999	-9999	-9999	-9999	-9999	-9999	-9999	-9999	-9999	-9999	-9999	-9999	-9999	-9999	-9999
1748	1743	1725	1713	1680	1660	1638	1572	1536	1486	1446	1384	1373	1385	1452	1530	1581	1634	1735	1746	1822	1961	2022	2108	2192	2280	2324	2245	2126	2079	2036	1996	1942	1916	1888	1808	1787	1767	1723	1669	1654	1605	1526	1512	1513	1523	1551	1545	1551	1608	1623	1617	1597	1521	1474	1433	1349	1305	1261	1225	1188	1188	1194	1234	1274	1318	1374	1472	1531	1600	1685	1691	1713	1732	1770	1795	1828	1913	1961	2013	2069	2176	2253	2313	2409	2477	2528	2523	2492	2485	2486	2489	2493	2494	2495	2486	2476	2463	2451	2440	2431	2434	2459	2485	2508	2497	2569	2555	2515	2442	2392	2349	2315	2256	2230	2205	2166	2147	2136	2119	2063	2024	1975	1917	1919	1919	1913	1918	1941	1956	1958	1945	1933	1930	1932	1927	1923	1930	1938	1944	1947	1982	1996	2027	2118	2161	2211	2252	2383	2432	2482	2595	2662	2725	2791	2841	2784	2698	2512	2486	2463	2437	2354	2323	2284	2240	2222	2198	2170	2104	2112	2172	2262	2246	2310	2368	2408	2349	2294	2254	2167	2131	2117	2100	2080	2034	2007	2002	2001	1988	1934	1893	1867	1804	1812	1865	1952	2093	2147	2191	2187	2149	2098	1995	1850	1820	1794	1784	1823	1894	1966	1963	1885	1879	1844	1800	1736	1673	1607	1563	1539	1446	1409	1369	1329	1298	1267	1242	1220	1166	1135	1100	1112	1125	1158	1173	1220	1243	1266	1299	1312	1325	1319	1344	1358	1369	1429	1467	1505	1538	1583	1603	1612	1645	1666	1718	1727	1742	1767	1785	1660	1592	1530	1478	1377	1336	1302	1245	1216	1192	1176	1191	1205	1197	1165	1114	1042	999	959	937	917	929	963	980	980	1038	1077	1121	1200	1237	1271	1293	1333	1359	1387	1451	1488	1527	1568	1650	1683	1712	1763	1771	1770	1760	1734	1709	1686	1667	1659	1654	1652	1645	1650	1651	1669	1685	1704	1752	1809	1829	1858	1897	1917	1943	1974	2044	2072	2095	2144	2166	2159	2106	2036	2016	2000	1966	1961	1965	1956	1947	1962	1980	2046	2084	2113	2137	2181	2204	2215	2249	2242	2230	2199	2131	2105	2082	2058	2031	1999	1970	1866	1826	1778	1694	1657	1625	1593	1526	1485	1458	1384	1346	1323	1291	1236	1204	1172	1139	1101	1074	1053	1020	1010	1004	998	981	977	970	965	959	953	949	938	956	948	935	921	898	873	783	753	753	753	753	753	753	753	753	753	753	753	753	753	753	753	753	780	807	831	848	879	895	911	920	934	935	954	957	961	976	1003	1009	1009	1007	1007	987	970	969	963	945	937	943	954	954	936	954	996	1015	1037	1046	1060	1087	1106	1119	1131	1165	1189	1212	1279	1329	1376	1413	1519	1569	1617	1726	1780	1833	1913	2001	2037	2071	2077	2061	2074	2079	2096	2062	2042	2078	2117	2153	2191	2255	2266	2265	2328	2393	2440	2470	2594	2526	2495	2501	2458	2443	2435	2434	-9999	-9999	-9999	-9999	-9999	-9999	-9999	-9999	-9999	-9999	-9999	-9999	-9999	-9999	-9999	-9999	-9999	-9999	-9999	-9999	-9999	-9999	-9999	-9999	-9999	-9999	-9999	-9999	-9999	-9999	-9999	-9999	-9999	-9999	-9999	-9999	-9999	-9999	-9999	-9999	-9999	-9999	-9999	-9999	-9999	-9999	-9999	-9999	-9999	-9999	-9999	-9999	-9999	-9999	-9999	-9999	-9999	-9999	-9999	-9999	-9999	-9999	-9999	-9999	-9999	-9999	-9999	-9999	-9999	-9999	-9999	-9999	-9999	-9999	-9999	-9999	-9999	-9999	-9999	-9999	-9999	-9999	-9999	-9999	-9999	-9999	-9999	-9999	-9999	-9999
1785	1773	1754	1738	1709	1677	1653	1604	1560	1506	1460	1396	1367	1381	1430	1511	1580	1624	1685	1735	1798	1930	2012	2061	2111	2282	2313	2227	2103	2068	2039	2002	1932	1898	1879	1817	1818	1787	1749	1691	1680	1665	1639	1621	1613	1619	1657	1606	1630	1731	1707	1664	1614	1538	1505	1463	1384	1334	1288	1245	1195	1191	1189	1214	1243	1271	1309	1453	1515	1593	1628	1640	1666	1675	1734	1772	1820	1918	1969	2018	2070	2187	2254	2312	2390	2440	2500	2521	2482	2477	2485	2486	2494	2495	2499	2481	2473	2465	2451	2446	2442	2457	2503	2531	2554	2557	2506	2456	2412	2333	2293	2317	2263	2239	2213	2185	2143	2125	2111	2095	2080	2047	2005	1945	1935	1931	1926	1925	1931	1939	1938	1939	1946	1936	1963	1977	1975	1945	1946	1948	1950	1970	1981	2005	2093	2138	2182	2218	2316	2369	2428	2549	2607	2653	2748	2850	2830	2737	2564	2521	2494	2471	2418	2383	2338	2319	2295	2269	2236	2224	2257	2352	2486	2509	2502	2492	2397	2328	2276	2210	2171	2148	2131	2095	2070	2043	2030	2032	2028	2023	1966	1933	1897	1834	1837	1883	1950	2092	2142	2183	2241	2226	2176	2070	1883	1834	1814	1824	1850	1902	1991	2033	2061	2043	1968	1928	1863	1784	1648	1619	1587	1500	1451	1405	1380	1339	1307	1284	1236	1202	1172	1130	1097	1102	1115	1140	1161	1174	1197	1249	1288	1300	1309	1320	1334	1351	1400	1436	1474	1519	1540	1561	1575	1612	1636	1670	1707	1696	1692	1715	1616	1560	1500	1394	1345	1308	1275	1216	1190	1175	1168	1182	1190	1192	1137	1078	1029	996	950	925	925	976	986	993	1013	1036	1071	1120	1192	1230	1262	1289	1333	1354	1379	1452	1494	1529	1569	1650	1691	1728	1799	1840	1846	1829	1805	1781	1768	1723	1703	1696	1691	1675	1683	1679	1659	1669	1690	1714	1762	1775	1814	1848	1868	1896	1952	2022	2054	2077	2127	2148	2153	2109	2047	2028	1997	1975	1983	1988	1983	1984	1997	2013	2052	2092	2125	2150	2202	2235	2240	2204	2183	2175	2148	2082	2060	2041	2020	1995	1970	1947	1909	1873	1820	1724	1682	1648	1618	1545	1508	1477	1400	1358	1335	1303	1248	1220	1187	1130	1108	1083	1061	1027	1012	1003	993	986	981	972	964	961	958	953	939	951	953	941	929	910	842	790	754	753	753	753	753	753	753	753	753	753	753	753	753	753	753	753	781	810	832	847	879	898	921	929	939	954	970	988	981	978	1007	1014	1011	1014	1018	999	981	966	964	952	942	942	951	960	945	944	972	1006	1034	1049	1059	1081	1098	1115	1125	1159	1182	1207	1270	1316	1370	1408	1492	1537	1590	1699	1755	1804	1853	1944	1958	1962	1954	1940	2007	2003	2026	2020	2023	2090	2142	2190	2265	2322	2315	2326	2317	2356	2393	2426	2504	2547	2585	2596	2554	2524	2468	2457	-9999	-9999	-9999	-9999	-9999	-9999	-9999	-9999	-9999	-9999	-9999	-9999	-9999	-9999	-9999	-9999	-9999	-9999	-9999	-9999	-9999	-9999	-9999	-9999	-9999	-9999	-9999	-9999	-9999	-9999	-9999	-9999	-9999	-9999	-9999	-9999	-9999	-9999	-9999	-9999	-9999	-9999	-9999	-9999	-9999	-9999	-9999	-9999	-9999	-9999	-9999	-9999	-9999	-9999	-9999	-9999	-9999	-9999	-9999	-9999	-9999	-9999	-9999	-9999	-9999	-9999	-9999	-9999	-9999	-9999	-9999	-9999	-9999	-9999	-9999	-9999	-9999	-9999	-9999	-9999	-9999	-9999	-9999	-9999	-9999	-9999	-9999	-9999	-9999	-9999
1796	1788	1775	1724	1716	1702	1673	1622	1569	1520	1433	1399	1365	1376	1423	1491	1543	1627	1693	1746	1800	1907	1969	2047	2198	2277	2307	2210	2114	2083	2056	2022	1940	1915	1893	1851	1841	1813	1786	1731	1725	1710	1708	1709	1718	1719	1728	1835	1896	1798	1752	1700	1642	1553	1520	1481	1411	1360	1305	1260	1203	1194	1192	1204	1222	1248	1287	1411	1476	1500	1527	1571	1622	1673	1775	1802	1842	1922	1970	2029	2082	2195	2242	2299	2389	2437	2499	2516	2488	2490	2494	2505	2507	2500	2489	2469	2471	2467	2462	2455	2456	2495	2561	2575	2590	2492	2442	2401	2359	2278	2257	2236	2211	2198	2185	2165	2108	2086	2089	2087	2086	2069	2039	1956	1935	1932	1926	1928	1929	1934	1939	1952	1969	2017	2032	2042	2045	2034	2008	1960	1968	1969	1974	1991	2061	2104	2153	2269	2317	2360	2408	2520	2567	2612	2725	2770	2808	2798	2684	2665	2560	2536	2481	2420	2382	2364	2337	2313	2298	2346	2398	2457	2581	2583	2548	2474	2360	2313	2270	2222	2199	2188	2147	2102	2080	2061	2053	2062	2058	2054	1999	1959	1920	1860	1855	1893	1949	2056	2115	2167	2274	2334	2332	2166	1907	1866	1845	1860	1886	1930	2006	2134	2116	2066	1978	1940	1924	1875	1767	1757	1713	1622	1565	1537	1511	1397	1360	1342	1291	1255	1221	1176	1100	1089	1092	1117	1128	1149	1167	1221	1238	1253	1290	1293	1305	1321	1382	1417	1451	1482	1501	1522	1544	1592	1616	1652	1688	1669	1656	1679	1606	1528	1473	1364	1313	1276	1245	1183	1176	1167	1162	1166	1174	1187	1106	1060	1021	967	943	925	931	976	997	1014	1045	1065	1086	1105	1179	1225	1251	1296	1320	1347	1380	1443	1486	1524	1605	1642	1682	1721	1804	1847	1889	1960	1960	1954	1914	1873	1851	1753	1737	1714	1720	1713	1687	1686	1685	1702	1740	1756	1785	1825	1840	1867	1903	1982	2013	2039	2096	2124	2150	2117	2059	2050	2024	1985	1995	2004	2004	1994	2009	2026	2063	2095	2127	2157	2222	2270	2257	2153	2119	2124	2105	2044	2018	1999	1972	1950	1923	1901	1885	1870	1833	1730	1688	1651	1625	1569	1538	1504	1428	1386	1353	1313	1261	1231	1200	1142	1116	1093	1068	1033	1014	1006	995	987	983	978	967	965	964	948	950	952	953	943	933	918	851	800	756	753	753	753	753	753	753	753	753	753	753	753	753	753	753	753	778	810	831	866	881	905	925	936	944	957	992	1001	991	983	1010	1016	1021	1027	1032	1018	1006	978	965	961	943	941	949	962	957	945	962	1017	1032	1049	1058	1077	1092	1099	1123	1143	1167	1191	1246	1299	1350	1390	1475	1521	1567	1670	1730	1791	1837	1887	1906	1897	1892	1878	1888	1899	1962	2022	2086	2207	2270	2287	2336	2396	2387	2361	2287	2306	2342	2382	2462	2489	2526	2598	2615	2602	2571	2539	-9999	-9999	-9999	-9999	-9999	-9999	-9999	-9999	-9999	-9999	-9999	-9999	-9999	-9999	-9999	-9999	-9999	-9999	-9999	-9999	-9999	-9999	-9999	-9999	-9999	-9999	-9999	-9999	-9999	-9999	-9999	-9999	-9999	-9999	-9999	-9999	-9999	-9999	-9999	-9999	-9999	-9999	-9999	-9999	-9999	-9999	-9999	-9999	-9999	-9999	-9999	-9999	-9999	-9999	-9999	-9999	-9999	-9999	-9999	-9999	-9999	-9999	-9999	-9999	-9999	-9999	-9999	-9999	-9999	-9999	-9999	-9999	-9999	-9999	-9999	-9999	-9999	-9999	-9999	-9999	-9999	-9999	-9999	-9999	-9999	-9999	-9999	-9999	-9999	-9999
1841	1832	1808	1745	1732	1710	1682	1616	1572	1525	1432	1397	1363	1351	1416	1482	1544	1667	1706	1754	1809	1927	1973	2030	2178	2256	2299	2224	2144	2119	2088	2044	2016	1985	2000	2017	1971	1943	1832	1828	1819	1814	1876	1900	1855	1806	1813	1919	1920	1811	1763	1704	1598	1555	1514	1482	1420	1381	1341	1273	1218	1204	1194	1198	1207	1230	1320	1364	1408	1426	1542	1596	1646	1694	1799	1856	1918	1996	2033	2071	2115	2180	2236	2303	2399	2450	2497	2510	2505	2510	2508	2521	2515	2496	2489	2496	2514	2523	2531	2534	2588	2637	2595	2583	2563	2463	2405	2363	2325	2244	2222	2203	2184	2177	2164	2146	2099	2075	2066	2058	2049	2043	2034	1980	1936	1930	1926	1928	1928	1930	1944	1965	1990	2044	2067	2079	2082	2076	2058	2037	2005	1986	1983	1989	2020	2076	2139	2250	2287	2341	2391	2496	2531	2567	2692	2741	2779	2823	2787	2777	2743	2587	2521	2480	2453	2409	2398	2349	2406	2456	2471	2543	2665	2621	2558	2447	2420	2378	2312	2246	2235	2260	2333	2324	2297	2245	2151	2139	2095	2061	2031	1993	1953	1900	1908	1937	2018	2075	2144	2211	2305	2371	2402	2216	2075	1972	1959	1953	1953	1988	2023	2216	2137	2084	1994	1955	1938	1908	1878	1860	1771	1651	1614	1620	1582	1503	1496	1477	1414	1380	1332	1228	1129	1094	1085	1103	1101	1121	1142	1187	1206	1228	1273	1282	1285	1302	1355	1376	1391	1436	1459	1483	1523	1572	1596	1627	1666	1637	1618	1638	1607	1526	1469	1360	1300	1256	1222	1177	1162	1160	1161	1158	1165	1161	1083	1047	1013	959	934	926	936	962	986	1013	1051	1077	1105	1131	1175	1208	1239	1297	1331	1364	1402	1449	1488	1528	1597	1632	1668	1709	1810	1857	1900	1990	2027	2022	1986	1949	1930	1894	1862	1845	1831	1815	1767	1721	1708	1702	1715	1728	1755	1812	1816	1843	1928	1964	1999	2025	2082	2114	2140	2129	2076	2061	2080	2077	2008	2013	2009	2004	2013	2031	2064	2095	2126	2184	2223	2272	2275	2184	2146	2121	2097	2016	1982	1948	1874	1844	1873	1850	1841	1832	1814	1731	1689	1650	1625	1575	1544	1507	1431	1393	1362	1332	1280	1251	1225	1160	1131	1101	1076	1037	1017	1006	997	990	982	980	969	971	963	952	957	957	962	949	938	929	860	804	758	753	753	753	753	753	753	753	753	753	753	753	753	753	753	753	769	807	832	865	885	911	929	945	951	960	995	1011	1005	992	1012	1019	1025	1030	1028	1021	1016	990	967	963	949	950	950	957	958	944	952	1021	1034	1047	1056	1072	1083	1091	1118	1135	1157	1181	1233	1266	1311	1409	1448	1492	1535	1647	1703	1768	1825	1835	1839	1836	1829	1835	1852	1926	1981	2055	2129	2264	2312	2369	2420	2451	2425	2394	2314	2284	2306	2374	2415	2446	2479	2553	2609	2616	2566	2561	-9999	-9999	-9999	-9999	-9999	-9999	-9999	-9999	-9999	-9999	-9999	-9999	-9999	-9999	-9999	-9999	-9999	-9999	-9999	-9999	-9999	-9999	-9999	-9999	-9999	-9999	-9999	-9999	-9999	-9999	-9999	-9999	-9999	-9999	-9999	-9999	-9999	-9999	-9999	-9999	-9999	-9999	-9999	-9999	-9999	-9999	-9999	-9999	-9999	-9999	-9999	-9999	-9999	-9999	-9999	-9999	-9999	-9999	-9999	-9999	-9999	-9999	-9999	-9999	-9999	-9999	-9999	-9999	-9999	-9999	-9999	-9999	-9999	-9999	-9999	-9999	-9999	-9999	-9999	-9999	-9999	-9999	-9999	-9999	-9999	-9999	-9999	-9999	-9999	-9999
1881	1856	1838	1792	1762	1729	1703	1623	1575	1524	1434	1394	1357	1342	1415	1469	1532	1636	1670	1706	1754	1881	1940	2015	2166	2229	2297	2321	2237	2189	2171	2136	2097	2078	2102	2084	2044	2033	2045	2049	2077	2085	2146	2075	2012	1861	1881	1965	1928	1805	1750	1690	1599	1553	1509	1480	1421	1389	1363	1305	1272	1240	1212	1198	1208	1222	1280	1307	1337	1405	1564	1616	1670	1763	1811	1861	1910	2011	2053	2096	2193	2248	2299	2355	2469	2509	2519	2522	2526	2524	2522	2524	2510	2498	2593	2593	2606	2636	2635	2647	2644	2606	2582	2533	2462	2360	2323	2294	2274	2220	2193	2174	2160	2149	2126	2121	2096	2073	2063	2050	2041	2032	2020	1968	1946	1932	1928	1929	1931	1933	1951	1985	2011	2089	2107	2105	2105	2088	2081	2058	2039	2026	2017	2008	2012	2041	2101	2196	2255	2297	2353	2414	2494	2531	2655	2706	2743	2787	2860	2809	2734	2591	2538	2501	2475	2434	2443	2482	2595	2645	2699	2743	2808	2682	2629	2507	2503	2480	2403	2295	2298	2372	2415	2413	2407	2344	2230	2188	2173	2155	2110	2072	2058	2021	1978	2002	2043	2091	2167	2242	2352	2405	2443	2238	2130	2035	2056	2008	1993	2017	2207	2291	2210	2130	2042	2030	1965	1951	1952	1922	1792	1676	1677	1667	1574	1562	1555	1539	1473	1433	1387	1260	1206	1159	1105	1080	1079	1093	1127	1150	1178	1204	1253	1267	1266	1279	1331	1353	1369	1423	1445	1464	1484	1519	1546	1572	1572	1542	1515	1585	1585	1513	1456	1353	1296	1251	1216	1173	1161	1158	1158	1156	1162	1152	1080	1039	998	943	925	926	939	982	988	998	1053	1090	1120	1151	1197	1228	1257	1309	1340	1378	1416	1497	1528	1553	1601	1634	1662	1698	1811	1865	1911	1999	2044	2079	2083	2035	2000	1964	1936	1914	1890	1889	1842	1806	1772	1727	1710	1704	1707	1788	1801	1820	1904	1941	1978	2011	2070	2100	2130	2146	2092	2067	2074	2118	2102	2076	2057	2059	2062	2056	2069	2093	2126	2184	2219	2262	2260	2212	2177	2145	2073	2036	2005	1967	1874	1831	1788	1739	1730	1720	1720	1714	1686	1648	1600	1574	1543	1505	1429	1394	1363	1309	1288	1261	1234	1173	1140	1114	1067	1047	1028	1015	999	990	984	972	973	969	959	956	962	965	965	950	939	929	859	803	759	753	753	753	753	753	753	753	753	753	753	753	753	753	753	753	772	808	832	866	886	912	933	960	967	972	1001	1022	1027	1003	1011	1022	1025	1030	1024	1023	1024	1003	973	962	948	954	956	959	963	949	958	1018	1029	1039	1053	1068	1076	1088	1115	1130	1149	1169	1222	1255	1293	1397	1435	1472	1515	1598	1648	1691	1717	1720	1714	1721	1780	1810	1850	1954	2019	2091	2159	2256	2290	2317	2383	2427	2427	2421	2337	2285	2248	2266	2308	2351	2388	2521	2573	2599	2587	2583	-9999	-9999	-9999	-9999	-9999	-9999	-9999	-9999	-9999	-9999	-9999	-9999	-9999	-9999	-9999	-9999	-9999	-9999	-9999	-9999	-9999	-9999	-9999	-9999	-9999	-9999	-9999	-9999	-9999	-9999	-9999	-9999	-9999	-9999	-9999	-9999	-9999	-9999	-9999	-9999	-9999	-9999	-9999	-9999	-9999	-9999	-9999	-9999	-9999	-9999	-9999	-9999	-9999	-9999	-9999	-9999	-9999	-9999	-9999	-9999	-9999	-9999	-9999	-9999	-9999	-9999	-9999	-9999	-9999	-9999	-9999	-9999	-9999	-9999	-9999	-9999	-9999	-9999	-9999	-9999	-9999	-9999	-9999	-9999	-9999	-9999	-9999	-9999	-9999	-9999
1888	1879	1866	1807	1788	1764	1697	1627	1574	1519	1433	1394	1353	1364	1404	1452	1508	1601	1651	1691	1745	1868	1929	1999	2145	2246	2341	2423	2459	2442	2311	2223	2187	2170	2184	2138	2128	2151	2128	2146	2201	2255	2208	2131	2054	1986	1961	1912	1872	1749	1697	1671	1584	1536	1500	1472	1431	1415	1396	1334	1297	1258	1230	1202	1205	1215	1266	1301	1337	1392	1520	1574	1669	1761	1811	1850	1886	1994	2045	2096	2181	2231	2284	2348	2468	2514	2535	2539	2536	2531	2527	2504	2507	2551	2684	2710	2701	2670	2649	2635	2592	2535	2525	2499	2435	2331	2298	2271	2224	2180	2154	2138	2123	2116	2113	2103	2092	2074	2062	2043	2036	2027	1994	1967	1947	1936	1931	1934	1943	1959	1987	2012	2048	2191	2215	2178	2100	2096	2092	2075	2058	2058	2046	2014	2015	2036	2084	2174	2222	2282	2329	2390	2412	2452	2543	2594	2651	2715	2843	2807	2739	2637	2581	2556	2532	2496	2518	2583	2753	2809	2842	2830	2818	2793	2752	2633	2606	2588	2548	2393	2429	2480	2498	2499	2469	2357	2300	2245	2228	2209	2179	2144	2127	2084	2105	2143	2212	2240	2265	2300	2381	2423	2474	2282	2184	2096	2103	2053	2040	2060	2231	2303	2232	2154	2093	2081	2064	2057	1979	1906	1834	1803	1736	1696	1635	1621	1607	1590	1531	1485	1425	1295	1234	1189	1141	1076	1071	1076	1079	1086	1099	1139	1204	1249	1246	1276	1301	1326	1346	1407	1426	1441	1475	1487	1506	1531	1511	1489	1453	1471	1425	1397	1371	1338	1300	1246	1188	1170	1160	1158	1156	1157	1160	1109	1072	1035	990	932	926	931	975	1002	1026	1043	1070	1111	1137	1171	1234	1260	1280	1335	1365	1406	1444	1531	1567	1591	1641	1667	1692	1726	1807	1857	1904	2001	2027	2074	2137	2118	2066	2033	2000	1961	1954	1968	1915	1881	1818	1764	1745	1730	1728	1752	1776	1797	1853	1896	1935	1988	2056	2091	2124	2153	2109	2085	2077	2117	2123	2109	2094	2101	2093	2076	2073	2102	2128	2186	2212	2171	2133	2162	2126	2093	2036	2008	1997	1985	1905	1855	1806	1715	1687	1670	1670	1684	1661	1630	1585	1563	1526	1488	1424	1390	1361	1313	1291	1268	1242	1183	1151	1123	1071	1051	1034	1020	1001	991	988	975	971	968	966	966	962	968	962	955	942	931	863	805	764	753	753	753	753	753	753	753	753	753	753	753	753	753	753	753	770	806	831	871	887	910	948	962	973	978	1002	1023	1031	1007	1003	1018	1019	1023	1025	1030	1030	1014	984	965	949	955	962	959	966	952	961	1016	1026	1036	1045	1065	1071	1083	1104	1120	1141	1161	1212	1241	1274	1377	1425	1451	1491	1574	1614	1640	1652	1659	1659	1681	1775	1840	1906	2029	2064	2090	2165	2202	2240	2246	2355	2380	2369	2375	2328	2274	2234	2231	2267	2316	2359	2466	2513	2559	2619	2628	-9999	-9999	-9999	-9999	-9999	-9999	-9999	-9999	-9999	-9999	-9999	-9999	-9999	-9999	-9999	-9999	-9999	-9999	-9999	-9999	-9999	-9999	-9999	-9999	-9999	-9999	-9999	-9999	-9999	-9999	-9999	-9999	-9999	-9999	-9999	-9999	-9999	-9999	-9999	-9999	-9999	-9999	-9999	-9999	-9999	-9999	-9999	-9999	-9999	-9999	-9999	-9999	-9999	-9999	-9999	-9999	-9999	-9999	-9999	-9999	-9999	-9999	-9999	-9999	-9999	-9999	-9999	-9999	-9999	-9999	-9999	-9999	-9999	-9999	-9999	-9999	-9999	-9999	-9999	-9999	-9999	-9999	-9999	-9999	-9999	-9999	-9999	-9999	-9999	-9999
1942	1930	1911	1845	1804	1765	1681	1618	1556	1511	1422	1385	1348	1355	1400	1463	1520	1616	1670	1708	1820	1891	1955	2013	2160	2262	2376	2509	2478	2450	2420	2343	2355	2378	2374	2375	2266	2292	2283	2284	2342	2272	2214	2144	2073	1928	1879	1842	1753	1708	1667	1627	1547	1506	1483	1476	1494	1448	1423	1365	1321	1284	1250	1214	1202	1206	1255	1291	1327	1374	1483	1529	1596	1710	1758	1808	1852	1937	2016	2064	2143	2204	2271	2326	2443	2496	2534	2545	2540	2533	2520	2493	2512	2562	2701	2696	2630	2553	2502	2527	2548	2488	2470	2458	2417	2309	2274	2249	2208	2165	2132	2126	2120	2114	2110	2091	2082	2063	2056	2041	2030	2021	1993	1973	1953	1940	1933	1941	1955	1985	2015	2051	2088	2223	2235	2205	2141	2124	2121	2116	2090	2086	2075	2024	2018	2036	2076	2142	2196	2264	2340	2369	2400	2431	2523	2575	2649	2778	2826	2847	2818	2757	2734	2723	2647	2649	2696	2738	2836	2848	2831	2805	2796	2775	2752	2700	2683	2659	2565	2631	2655	2645	2610	2586	2528	2426	2343	2297	2299	2263	2235	2207	2192	2158	2168	2203	2276	2327	2352	2378	2447	2475	2505	2315	2253	2218	2185	2111	2117	2118	2273	2321	2256	2180	2145	2143	2147	2077	1990	1925	1886	1888	1800	1758	1755	1748	1721	1689	1571	1514	1452	1313	1258	1215	1174	1100	1086	1077	1056	1056	1074	1107	1172	1195	1205	1229	1248	1284	1316	1370	1409	1417	1442	1447	1463	1482	1448	1427	1405	1403	1359	1327	1308	1316	1288	1253	1209	1210	1191	1175	1161	1154	1152	1091	1059	1021	975	927	926	935	990	1028	1056	1075	1084	1126	1159	1223	1261	1298	1340	1414	1446	1446	1526	1563	1600	1626	1684	1711	1740	1793	1818	1858	1905	1993	2031	2085	2190	2228	2244	2230	2108	2076	2016	2013	1977	1972	1912	1827	1800	1788	1809	1806	1786	1792	1839	1875	1918	1963	2041	2080	2116	2185	2198	2168	2115	2125	2130	2120	2115	2110	2099	2093	2095	2120	2141	2176	2182	2130	2076	2041	2015	1978	1914	1891	1880	1933	1885	1852	1808	1728	1680	1641	1624	1641	1629	1605	1569	1547	1513	1476	1393	1374	1347	1313	1291	1271	1250	1194	1162	1131	1074	1054	1037	1024	1002	995	988	980	976	972	970	964	963	965	968	964	951	935	875	820	775	753	753	753	753	753	753	753	753	753	753	753	753	753	753	753	765	803	827	872	894	912	948	961	974	982	1002	1020	1032	1017	1005	1010	1015	1027	1030	1039	1052	1034	1009	976	955	955	966	961	967	957	964	1009	1020	1031	1054	1064	1072	1080	1103	1116	1128	1161	1183	1212	1242	1340	1389	1440	1508	1547	1574	1581	1588	1601	1635	1743	1814	1881	1945	2008	2003	2018	2057	2104	2123	2158	2249	2267	2311	2320	2280	2230	2203	2220	2246	2290	2326	2426	2472	2521	2605	2633	2616	-9999	-9999	-9999	-9999	-9999	-9999	-9999	-9999	-9999	-9999	-9999	-9999	-9999	-9999	-9999	-9999	-9999	-9999	-9999	-9999	-9999	-9999	-9999	-9999	-9999	-9999	-9999	-9999	-9999	-9999	-9999	-9999	-9999	-9999	-9999	-9999	-9999	-9999	-9999	-9999	-9999	-9999	-9999	-9999	-9999	-9999	-9999	-9999	-9999	-9999	-9999	-9999	-9999	-9999	-9999	-9999	-9999	-9999	-9999	-9999	-9999	-9999	-9999	-9999	-9999	-9999	-9999	-9999	-9999	-9999	-9999	-9999	-9999	-9999	-9999	-9999	-9999	-9999	-9999	-9999	-9999	-9999	-9999	-9999	-9999	-9999	-9999	-9999	-9999
1977	1967	1942	1851	1801	1768	1681	1606	1547	1498	1409	1375	1338	1359	1409	1476	1548	1663	1697	1740	1875	1904	1968	2036	2202	2326	2401	2448	2416	2388	2367	2362	2373	2383	2399	2422	2440	2453	2374	2328	2291	2239	2201	2138	2075	1941	1854	1781	1700	1665	1635	1604	1526	1503	1495	1515	1532	1520	1495	1423	1392	1358	1268	1224	1202	1206	1255	1288	1321	1409	1454	1498	1551	1694	1737	1780	1858	1917	1969	2022	2110	2173	2237	2369	2439	2490	2539	2552	2542	2532	2510	2469	2490	2528	2636	2616	2584	2499	2435	2450	2460	2374	2330	2298	2284	2247	2262	2233	2179	2156	2131	2123	2118	2113	2107	2087	2075	2063	2055	2036	2027	2015	1983	1968	1958	1959	1939	1942	1960	2006	2048	2090	2134	2265	2241	2214	2170	2149	2145	2136	2101	2095	2090	2063	2038	2035	2053	2121	2167	2245	2315	2355	2398	2438	2522	2570	2629	2757	2771	2787	2780	2712	2685	2683	2700	2709	2715	2728	2771	2790	2801	2787	2780	2765	2748	2718	2707	2689	2670	2656	2646	2629	2597	2581	2561	2505	2478	2445	2404	2352	2331	2305	2226	2214	2217	2254	2336	2388	2436	2498	2528	2541	2526	2333	2283	2262	2266	2287	2315	2244	2391	2437	2346	2218	2209	2214	2218	2082	2009	1947	1968	1917	1844	1814	1827	1807	1777	1739	1658	1590	1519	1376	1323	1275	1217	1120	1094	1077	1038	1033	1045	1072	1133	1162	1181	1218	1233	1260	1295	1344	1353	1355	1370	1374	1384	1383	1396	1372	1351	1336	1292	1260	1244	1259	1250	1234	1220	1236	1225	1218	1175	1137	1111	1058	1014	969	935	927	933	952	1018	1061	1095	1118	1090	1134	1178	1216	1254	1289	1335	1425	1453	1505	1588	1625	1663	1700	1768	1753	1774	1843	1859	1880	1914	1991	2034	2084	2189	2239	2279	2279	2157	2143	2189	2169	2110	2116	2077	1948	1860	1850	1857	1836	1809	1812	1859	1887	1922	1990	2036	2081	2118	2192	2223	2224	2190	2157	2141	2153	2164	2168	2132	2136	2143	2159	2163	2128	2133	2091	1987	1977	1954	1925	1854	1835	1826	1779	1757	1726	1698	1659	1639	1630	1585	1597	1594	1579	1543	1522	1488	1456	1375	1362	1338	1309	1289	1272	1253	1211	1178	1147	1092	1068	1048	1027	1004	998	995	984	981	976	975	965	964	964	970	967	957	938	903	866	822	753	753	753	753	753	753	753	753	753	753	753	753	753	753	753	759	797	821	871	892	910	946	963	968	980	1003	1018	1031	1025	1007	1004	1014	1029	1031	1043	1059	1046	1019	987	955	963	973	970	968	975	964	1005	1026	1039	1055	1065	1072	1078	1100	1112	1124	1156	1176	1199	1230	1317	1366	1408	1450	1452	1457	1467	1565	1606	1673	1768	1843	1910	1943	1951	1941	1958	2020	2072	2075	2126	2190	2208	2199	2202	2193	2170	2161	2194	2213	2257	2336	2394	2437	2483	2574	2618	2624	-9999	-9999	-9999	-9999	-9999	-9999	-9999	-9999	-9999	-9999	-9999	-9999	-9999	-9999	-9999	-9999	-9999	-9999	-9999	-9999	-9999	-9999	-9999	-9999	-9999	-9999	-9999	-9999	-9999	-9999	-9999	-9999	-9999	-9999	-9999	-9999	-9999	-9999	-9999	-9999	-9999	-9999	-9999	-9999	-9999	-9999	-9999	-9999	-9999	-9999	-9999	-9999	-9999	-9999	-9999	-9999	-9999	-9999	-9999	-9999	-9999	-9999	-9999	-9999	-9999	-9999	-9999	-9999	-9999	-9999	-9999	-9999	-9999	-9999	-9999	-9999	-9999	-9999	-9999	-9999	-9999	-9999	-9999	-9999	-9999	-9999	-9999	-9999	-9999
1866	1859	1859	1823	1791	1763	1668	1600	1533	1490	1404	1368	1334	1364	1410	1465	1544	1684	1734	1797	1887	1959	2025	2097	2211	2271	2332	2395	2358	2328	2313	2310	2312	2325	2336	2350	2385	2404	2325	2275	2229	2169	2114	2074	2048	1852	1772	1715	1666	1632	1607	1586	1545	1525	1526	1567	1571	1550	1525	1446	1420	1387	1288	1243	1210	1204	1249	1279	1310	1363	1420	1459	1510	1646	1696	1739	1858	1907	1941	1989	2112	2183	2252	2374	2424	2455	2501	2541	2531	2520	2464	2446	2449	2462	2504	2530	2496	2416	2391	2393	2403	2350	2301	2253	2209	2193	2183	2169	2153	2149	2134	2112	2112	2107	2100	2091	2096	2085	2045	2029	2014	2004	1980	1969	1970	1954	1947	1961	1992	2063	2118	2189	2263	2304	2248	2226	2194	2173	2158	2144	2107	2100	2100	2065	2042	2033	2047	2116	2166	2234	2342	2374	2428	2483	2539	2575	2625	2710	2691	2695	2708	2678	2652	2648	2676	2684	2688	2705	2755	2777	2771	2742	2746	2740	2735	2703	2713	2692	2669	2657	2644	2628	2599	2587	2571	2527	2498	2469	2435	2376	2358	2329	2317	2322	2316	2345	2455	2540	2510	2605	2616	2606	2541	2374	2317	2300	2308	2335	2380	2325	2423	2521	2469	2331	2268	2223	2183	2093	2066	1995	2006	1938	1891	1886	1905	1867	1827	1755	1699	1630	1557	1419	1360	1297	1189	1154	1123	1093	1046	1027	1019	1060	1089	1130	1158	1202	1207	1231	1299	1316	1323	1327	1361	1363	1358	1315	1292	1270	1245	1194	1154	1150	1192	1194	1193	1193	1211	1227	1233	1230	1165	1122	1079	1020	974	944	930	947	980	1019	1114	1137	1176	1197	1130	1118	1171	1237	1259	1289	1331	1419	1458	1503	1598	1645	1684	1724	1796	1829	1859	1895	1917	1945	1978	2024	2058	2094	2186	2243	2292	2310	2221	2203	2243	2231	2185	2186	2130	1995	1944	1912	1885	1866	1854	1864	1934	1927	1955	1988	2034	2075	2109	2191	2223	2250	2206	2188	2171	2184	2213	2224	2238	2235	2182	2141	2102	2022	2071	2035	1937	1913	1891	1872	1800	1785	1773	1725	1696	1666	1645	1606	1585	1570	1513	1505	1512	1497	1474	1446	1454	1394	1359	1345	1326	1303	1287	1272	1232	1213	1184	1155	1094	1072	1054	1027	1016	1004	1000	991	987	981	972	967	965	964	970	969	963	921	905	876	839	759	753	753	753	753	753	753	753	753	753	753	753	753	753	753	755	786	818	870	893	912	949	967	969	974	998	1012	1026	1023	1008	1008	1015	1028	1032	1047	1065	1053	1029	1001	958	962	972	975	965	974	967	989	1015	1036	1057	1063	1069	1075	1099	1110	1123	1149	1166	1189	1217	1293	1341	1383	1413	1398	1425	1478	1604	1666	1718	1809	1831	1840	1830	1894	1886	1901	1968	2006	2036	2082	2136	2143	2139	2137	2142	2151	2161	2172	2192	2211	2269	2312	2358	2409	2520	2592	2620	-9999	-9999	-9999	-9999	-9999	-9999	-9999	-9999	-9999	-9999	-9999	-9999	-9999	-9999	-9999	-9999	-9999	-9999	-9999	-9999	-9999	-9999	-9999	-9999	-9999	-9999	-9999	-9999	-9999	-9999	-9999	-9999	-9999	-9999	-9999	-9999	-9999	-9999	-9999	-9999	-9999	-9999	-9999	-9999	-9999	-9999	-9999	-9999	-9999	-9999	-9999	-9999	-9999	-9999	-9999	-9999	-9999	-9999	-9999	-9999	-9999	-9999	-9999	-9999	-9999	-9999	-9999	-9999	-9999	-9999	-9999	-9999	-9999	-9999	-9999	-9999	-9999	-9999	-9999	-9999	-9999	-9999	-9999	-9999	-9999	-9999	-9999	-9999	-9999
1842	1830	1811	1803	1775	1736	1620	1574	1520	1438	1393	1354	1329	1353	1404	1482	1617	1681	1741	1807	1926	1976	2023	2133	2202	2268	2323	2319	2282	2261	2218	2217	2228	2271	2294	2305	2334	2364	2286	2237	2194	2082	2025	1972	1942	1821	1771	1718	1634	1617	1613	1617	1655	1694	1614	1657	1604	1569	1545	1477	1441	1397	1298	1251	1219	1207	1238	1265	1296	1345	1405	1481	1550	1659	1705	1751	1831	1888	1954	2013	2134	2190	2236	2322	2367	2424	2477	2514	2499	2484	2448	2438	2425	2407	2400	2399	2396	2382	2363	2365	2376	2338	2285	2212	2170	2152	2147	2144	2142	2136	2124	2109	2105	2102	2102	2111	2126	2126	2037	2017	2000	1993	1983	1979	1979	1958	1959	1981	2026	2118	2199	2283	2360	2326	2289	2258	2226	2216	2196	2142	2117	2101	2105	2074	2056	2046	2072	2113	2173	2237	2343	2371	2420	2497	2538	2593	2656	2611	2590	2587	2619	2641	2623	2622	2654	2660	2670	2688	2773	2792	2764	2736	2732	2728	2718	2712	2711	2688	2683	2678	2656	2633	2611	2591	2574	2532	2501	2479	2459	2399	2373	2359	2384	2402	2391	2428	2554	2623	2694	2760	2682	2590	2510	2435	2369	2356	2341	2361	2406	2409	2457	2537	2534	2303	2243	2198	2168	2137	2134	2136	2041	1995	1974	1991	2032	1960	1867	1779	1714	1635	1535	1416	1370	1327	1227	1186	1154	1120	1057	1035	1032	1021	1022	1041	1074	1136	1154	1201	1263	1279	1283	1300	1317	1307	1302	1264	1245	1219	1197	1149	1115	1099	1077	1086	1082	1080	1114	1134	1148	1181	1137	1089	1042	974	946	932	942	980	1020	1060	1168	1195	1223	1248	1239	1207	1167	1244	1283	1314	1377	1423	1463	1504	1599	1648	1682	1761	1795	1826	1846	1869	1890	1920	1988	2034	2079	2120	2192	2240	2287	2335	2310	2270	2293	2281	2267	2207	2133	2011	1968	1934	1903	1900	1889	1905	1946	1972	1983	1991	2026	2066	2103	2185	2220	2253	2231	2218	2217	2221	2253	2279	2296	2230	2171	2111	2060	1978	1951	1924	1839	1802	1779	1758	1752	1736	1717	1672	1644	1615	1597	1561	1540	1523	1481	1466	1467	1454	1437	1416	1388	1334	1319	1303	1285	1262	1272	1263	1228	1207	1184	1158	1097	1077	1059	1033	1021	1009	1004	994	989	985	980	971	965	965	966	970	968	927	906	882	851	766	753	753	753	753	753	753	753	753	753	753	753	753	753	753	753	779	841	871	891	913	951	968	969	979	992	1008	1023	1019	1014	1017	1026	1033	1041	1053	1074	1059	1042	985	962	961	967	980	971	969	965	975	1001	1033	1060	1063	1070	1085	1095	1109	1120	1140	1158	1176	1207	1273	1311	1357	1369	1389	1451	1509	1618	1665	1705	1790	1796	1792	1776	1765	1775	1797	1864	1906	1946	1985	2073	2095	2091	2096	2112	2138	2148	2163	2178	2198	2260	2295	2334	2384	2515	2578	2585	-9999	-9999	-9999	-9999	-9999	-9999	-9999	-9999	-9999	-9999	-9999	-9999	-9999	-9999	-9999	-9999	-9999	-9999	-9999	-9999	-9999	-9999	-9999	-9999	-9999	-9999	-9999	-9999	-9999	-9999	-9999	-9999	-9999	-9999	-9999	-9999	-9999	-9999	-9999	-9999	-9999	-9999	-9999	-9999	-9999	-9999	-9999	-9999	-9999	-9999	-9999	-9999	-9999	-9999	-9999	-9999	-9999	-9999	-9999	-9999	-9999	-9999	-9999	-9999	-9999	-9999	-9999	-9999	-9999	-9999	-9999	-9999	-9999	-9999	-9999	-9999	-9999	-9999	-9999	-9999	-9999	-9999	-9999	-9999	-9999	-9999	-9999	-9999	-9999
