ncols        175
nrows        107
xllcorner    -1620000.000000000000
yllcorner    438000.000000000000
cellsize     100.000000000000
NODATA_value -9999
1623 1581 1556 1509 1465 1408 1393 1374 1329 1302 1288 1282 1265 1252 1240 1200 1190 1173 1152 1135 1130 1125 1121 1114 1093 1064 1042 1033 1031 1026 1015 1007 999 988 975 948 898 894 926 947 1016 1036 1049 1076 1094 1134 1164 1153 1141 1122 1074 1047 1024 975 986 1000 1008 989 978 977 979 972 956 952 941 944 947 949 937 933 928 902 892 889 884 825 787 762 753 753 753 753 754 776 833 862 927 963 987 1011 1015 1009 997 977 973 974 985 993 1006 1010 1045 1042 1055 1098 1107 1114 1129 1148 1150 1114 1073 1097 1120 1146 1181 1192 1195 1225 1239 1255 1258 1248 1238 1226 1158 1127 1100 1046 964 933 908 880 846 836 826 803 797 816 833 836 858 896 904 903 903 909 924 931 931 952 974 991 991 979 970 967 971 971 971 971 978 984 988 984 984 988 994 994 998 1008 1017 1039 1037 1058 1054 
1694 1667 1629 1543 1483 1452 1427 1403 1342 1317 1314 1310 1285 1269 1254 1220 1202 1183 1168 1150 1138 1127 1116 1114 1098 1071 1049 1037 1033 1035 1023 1010 999 998 986 974 922 903 900 914 958 983 1024 1046 1054 1070 1087 1144 1130 1116 1072 1049 1031 984 994 1006 1012 1001 996 995 995 989 987 979 961 962 955 945 942 937 932 915 904 897 887 856 817 787 755 753 753 753 753 757 776 840 871 900 950 992 1014 1010 990 983 973 968 980 988 1002 1009 1021 1038 1043 1083 1092 1101 1112 1114 1114 1097 1000 1017 1091 1117 1159 1168 1175 1205 1220 1234 1246 1251 1243 1234 1175 1143 1112 1077 998 950 916 869 843 835 828 806 798 804 832 834 851 882 898 897 897 899 911 923 927 939 958 976 988 985 973 966 966 968 973 969 973 980 986 984 982 985 992 994 998 1004 1014 1018 1027 1045 1054 
1701 1683 1641 1621 1551 1518 1473 1428 1373 1338 1345 1325 1302 1286 1268 1234 1215 1202 1166 1155 1145 1135 1107 1104 1098 1071 1060 1054 1043 1035 1032 1014 1003 1003 995 986 952 929 918 904 928 968 1012 1032 1042 1053 1063 1100 1107 1099 1060 1050 1034 996 1005 1018 1016 1010 1013 1024 1023 1008 1003 991 970 968 966 965 949 943 941 940 933 917 904 882 857 817 770 760 755 753 753 753 756 819 853 875 916 980 989 997 992 990 983 975 968 978 992 1016 1009 1016 1032 1064 1075 1081 1096 1103 1105 1083 976 987 1025 1057 1073 1108 1131 1154 1198 1213 1244 1252 1249 1239 1184 1151 1121 1047 1013 961 923 863 842 833 826 819 798 802 831 832 845 888 892 890 892 893 899 914 919 934 949 971 988 984 972 965 966 965 963 971 971 971 983 985 981 982 991 992 997 1000 1017 1011 1017 1033 1048 
1700 1694 1685 1663 1581 1538 1476 1438 1413 1410 1399 1352 1330 1318 1299 1256 1228 1214 1175 1162 1155 1145 1115 1106 1096 1076 1060 1052 1044 1034 1032 1025 1011 1007 1002 997 983 956 946 909 911 946 989 1026 1030 1044 1060 1069 1077 1080 1069 1058 1046 976 982 1033 1034 1029 1035 1034 1037 1026 1016 1011 985 978 981 994 989 976 965 948 941 934 922 901 898 893 824 791 775 766 753 753 753 792 820 853 895 960 975 983 982 987 988 987 964 959 966 990 996 1001 997 1041 1046 1056 1075 1083 1087 1076 960 948 987 1008 1026 1064 1112 1135 1152 1167 1214 1239 1252 1253 1202 1159 1129 1057 1018 970 932 864 842 832 822 813 806 819 830 833 850 878 884 886 884 884 892 904 921 929 943 968 986 982 972 969 970 966 963 968 972 970 981 985 983 980 988 989 995 1005 1015 1006 1007 1022 1037 
1718 1739 1715 1685 1611 1552 1493 1487 1454 1432 1411 1367 1357 1339 1312 1265 1243 1225 1194 1181 1172 1162 1133 1122 1109 1081 1068 1056 1048 1034 1033 1030 1021 1015 1012 1007 992 980 964 925 909 921 952 1022 1030 1036 1055 1061 1069 1075 1077 1064 1053 994 975 1026 1042 1035 1039 1045 1052 1047 1040 1038 1033 1030 1012 1024 1026 1021 1008 990 976 969 935 917 902 901 860 813 786 770 754 753 753 763 781 832 910 939 958 968 966 976 984 984 963 952 951 953 958 962 967 1002 993 987 1016 1026 1026 1052 946 914 940 953 980 1026 1090 1122 1134 1144 1197 1226 1247 1254 1214 1177 1139 1079 1039 993 954 872 843 830 815 798 815 820 829 832 850 876 880 886 879 877 881 891 910 922 929 952 977 978 971 968 975 972 965 961 967 971 977 983 987 981 987 990 990 1002 1009 1005 998 1003 1015 
1768 1774 1756 1726 1639 1598 1589 1510 1480 1439 1411 1393 1383 1358 1309 1281 1256 1236 1204 1192 1184 1169 1154 1147 1137 1108 1091 1072 1055 1039 1037 1032 1026 1021 1018 1012 990 981 966 939 920 922 939 1008 1029 1037 1059 1063 1062 1058 1074 1070 1058 1022 979 1019 1044 1043 1047 1052 1060 1059 1055 1051 1050 1049 1054 1054 1054 1053 1057 1060 1020 1013 984 959 923 906 881 846 812 777 757 753 754 767 779 796 826 856 908 935 932 935 967 994 974 947 932 928 930 917 933 957 965 959 982 989 988 950 911 865 883 905 937 998 1073 1099 1117 1128 1181 1211 1238 1250 1225 1189 1150 1089 1052 1013 971 913 873 844 820 794 803 818 826 834 851 874 873 883 879 876 876 883 901 919 921 939 974 979 974 964 972 978 974 960 966 973 973 979 986 983 984 990 988 999 1005 1004 997 997 1005 
1768 1771 1755 1729 1666 1643 1608 1537 1513 1493 1472 1420 1410 1371 1321 1295 1269 1246 1215 1199 1189 1168 1158 1152 1147 1127 1106 1087 1056 1043 1038 1037 1026 1020 1016 1001 998 991 985 947 930 916 954 990 1019 1032 1057 1065 1067 1063 1050 1053 1054 1032 987 997 1044 1045 1050 1058 1064 1066 1068 1064 1059 1057 1058 1057 1053 1053 1055 1069 1070 1056 1037 1020 993 965 892 877 844 789 761 753 755 772 789 793 807 825 853 901 915 915 922 928 919 910 910 873 914 903 883 911 926 927 952 957 951 894 865 849 870 881 907 924 964 1021 1085 1109 1132 1161 1217 1245 1232 1198 1159 1101 1065 1027 947 919 897 862 827 801 797 823 830 839 857 871 869 873 874 874 873 879 891 911 918 958 971 979 980 964 971 976 964 956 960 966 975 972 977 984 981 987 987 996 1000 1003 997 995 1000 
1769 1761 1762 1750 1713 1673 1625 1566 1544 1521 1492 1448 1431 1408 1352 1322 1292 1271 1232 1208 1196 1174 1169 1158 1153 1139 1121 1110 1071 1054 1048 1043 1032 1026 1021 1009 1006 1004 1002 980 958 928 939 974 1001 1023 1051 1064 1072 1063 1056 1050 1050 1034 994 983 1047 1049 1055 1062 1075 1080 1082 1072 1069 1065 1064 1059 1055 1051 1052 1057 1062 1062 1049 1034 1008 951 917 895 884 823 786 757 754 781 789 793 800 804 815 850 884 887 893 897 895 894 890 892 857 838 815 835 860 855 931 937 924 844 830 835 849 857 871 879 954 1013 1074 1100 1118 1139 1165 1213 1231 1216 1176 1116 1075 1039 956 920 904 883 834 812 792 826 837 839 850 866 866 866 876 867 863 872 878 885 918 943 968 975 977 966 969 971 965 954 956 963 975 973 974 984 981 978 982 992 994 997 990 991 996 
1805 1795 1808 1803 1737 1700 1658 1599 1572 1541 1503 1475 1450 1423 1363 1330 1309 1293 1251 1233 1217 1188 1177 1166 1158 1145 1131 1122 1083 1068 1062 1052 1038 1032 1022 1012 1013 1012 1006 985 972 960 926 929 963 985 1023 1055 1067 1067 1061 1051 1050 1037 1007 978 1045 1050 1056 1061 1078 1084 1086 1092 1090 1086 1079 1067 1062 1055 1047 1046 1052 1055 1054 1043 1018 962 932 906 891 840 803 775 754 756 761 765 772 774 777 839 843 846 846 852 869 876 879 873 863 821 801 818 819 843 868 885 871 774 768 777 779 839 836 850 941 999 1045 1072 1106 1121 1145 1196 1214 1219 1183 1118 1090 1059 978 943 916 890 839 812 792 822 832 837 844 864 865 864 873 867 861 865 872 876 890 923 945 963 968 953 965 966 965 954 951 959 971 974 972 982 984 978 978 989 991 993 987 985 990 
1819 1813 1824 1804 1785 1764 1729 1645 1613 1586 1522 1504 1466 1434 1370 1344 1328 1292 1269 1248 1230 1200 1189 1175 1157 1147 1140 1130 1100 1087 1077 1064 1040 1038 1028 1020 1014 1010 1004 994 984 975 949 933 941 965 1011 1022 1042 1060 1061 1054 1044 1032 1020 986 1035 1045 1048 1058 1081 1086 1088 1095 1102 1108 1096 1073 1067 1061 1051 1044 1043 1042 1042 1045 1025 975 948 930 906 863 838 812 763 756 754 754 754 754 754 755 756 755 755 765 802 861 847 837 830 809 787 783 783 811 827 838 836 756 755 755 757 765 788 818 893 934 977 1078 1090 1103 1120 1175 1191 1200 1151 1118 1093 1066 989 955 928 873 846 809 790 815 821 828 843 864 865 864 865 864 861 858 867 870 881 915 938 958 963 946 950 959 952 955 947 956 966 971 972 974 980 978 976 984 988 990 983 980 987 
1830 1825 1825 1826 1811 1790 1757 1678 1654 1635 1574 1526 1482 1452 1417 1401 1376 1308 1289 1266 1243 1210 1199 1187 1165 1153 1141 1130 1113 1098 1087 1062 1055 1047 1045 1031 1025 1022 1007 1002 997 986 968 946 931 972 998 1015 1034 1050 1048 1047 1031 1027 1022 1009 990 1026 1040 1064 1078 1086 1090 1096 1098 1101 1104 1080 1073 1066 1049 1044 1039 1038 1034 1031 1020 998 977 957 938 903 874 842 804 782 780 779 781 779 771 757 756 757 756 758 798 829 836 836 827 803 762 756 767 777 790 807 810 755 756 760 755 755 764 795 873 917 967 1041 1057 1069 1082 1116 1128 1169 1155 1121 1095 1071 999 963 937 896 867 819 789 808 816 820 837 853 860 863 861 862 858 856 859 863 869 902 927 950 950 940 945 955 949 949 945 960 968 971 967 968 968 972 975 976 984 987 985 978 985 
1872 1832 1833 1846 1836 1816 1791 1716 1696 1677 1583 1529 1487 1472 1448 1423 1398 1349 1326 1299 1287 1239 1224 1201 1176 1162 1147 1139 1121 1108 1097 1073 1065 1057 1052 1039 1029 1027 1020 1014 1005 999 990 977 963 950 983 1006 1024 1038 1032 1033 1020 1016 1015 1000 984 1021 1040 1057 1067 1076 1081 1099 1104 1109 1094 1085 1078 1067 1050 1044 1035 1028 1026 1024 1014 997 985 966 928 913 898 879 825 813 856 827 800 796 796 792 795 796 788 762 813 836 837 835 830 821 756 756 771 761 757 755 755 761 761 773 770 758 755 776 866 913 951 1016 1042 1055 1068 1097 1110 1131 1165 1133 1101 1078 1014 985 946 908 884 844 796 794 811 816 834 847 858 859 857 857 856 850 852 852 852 866 886 921 944 936 938 950 949 947 945 961 967 973 970 967 967 969 973 971 974 979 980 979 971 
1902 1870 1853 1875 1870 1862 1816 1750 1737 1713 1582 1538 1510 1503 1473 1443 1421 1367 1342 1318 1299 1255 1236 1220 1192 1179 1166 1155 1137 1116 1104 1083 1075 1068 1060 1047 1039 1032 1031 1024 1014 1006 999 993 978 954 952 952 969 996 1010 1023 1016 1009 1007 991 978 1005 1036 1055 1063 1070 1074 1091 1096 1104 1097 1079 1066 1059 1045 1042 1035 1025 1019 1014 1008 992 985 970 944 926 912 885 831 847 883 866 850 838 834 825 812 820 787 757 800 834 840 840 841 810 757 759 782 787 785 773 776 797 814 821 786 775 759 796 863 900 929 996 1029 1047 1070 1086 1102 1124 1163 1146 1115 1087 1025 994 968 925 904 882 847 786 808 813 829 836 852 858 855 855 855 853 847 849 850 853 867 901 938 934 933 933 929 938 944 962 967 973 970 967 966 967 972 971 973 974 972 970 969 
1922 1887 1874 1895 1899 1893 1844 1802 1757 1701 1619 1597 1592 1559 1505 1468 1441 1385 1358 1337 1282 1257 1248 1236 1202 1189 1175 1154 1144 1128 1119 1104 1092 1083 1071 1065 1051 1039 1035 1029 1020 1012 1008 1003 987 987 985 965 953 966 994 1006 1009 1012 1006 987 978 991 1028 1052 1060 1066 1069 1087 1087 1084 1090 1076 1066 1059 1045 1038 1032 1021 1013 1002 994 986 983 973 956 936 910 864 865 867 894 890 876 863 851 837 835 833 800 756 768 789 780 774 771 802 758 760 790 801 801 800 822 833 834 835 813 783 762 781 830 873 899 952 992 1028 1049 1077 1096 1118 1165 1159 1131 1068 1039 999 975 936 912 891 821 791 794 810 811 824 834 856 855 853 853 852 849 844 842 840 847 873 929 931 932 922 928 940 942 954 962 968 973 966 966 966 970 972 974 972 956 955 952 
1921 1891 1898 1921 1929 1922 1870 1834 1770 1719 1662 1646 1635 1582 1549 1520 1498 1431 1398 1353 1280 1275 1271 1256 1217 1199 1186 1162 1150 1137 1131 1111 1099 1093 1081 1075 1065 1057 1039 1034 1030 1024 1017 1010 991 1005 1006 997 968 956 979 1003 1002 1004 1008 992 987 988 1014 1036 1041 1044 1052 1066 1093 1074 1075 1071 1066 1056 1048 1040 1030 1018 1009 1000 994 990 983 973 923 892 882 912 893 886 905 908 899 881 864 850 847 847 827 762 755 756 755 755 756 763 784 823 841 842 847 827 851 856 849 844 829 801 769 771 823 860 885 942 975 1015 1037 1059 1083 1110 1157 1169 1157 1084 1059 1015 988 946 922 899 847 807 786 798 810 810 818 853 854 853 851 849 850 844 831 832 836 853 915 926 928 920 916 932 934 950 956 965 970 966 966 966 969 971 974 974 970 950 947 
1929 1942 1950 1963 1961 1941 1893 1859 1806 1766 1714 1705 1674 1600 1572 1547 1515 1436 1393 1347 1338 1338 1325 1298 1258 1238 1198 1171 1158 1147 1141 1121 1108 1101 1090 1083 1073 1064 1050 1038 1033 1028 1022 1017 1009 1028 1026 1020 999 971 967 996 1003 1001 1001 999 996 985 1002 1020 1024 1029 1027 1045 1065 1064 1063 1066 1068 1068 1056 1047 1036 1018 1015 1010 1004 1001 989 977 916 888 925 923 924 932 927 923 917 911 901 893 867 868 853 803 772 769 782 793 799 809 826 847 867 864 864 865 868 866 867 868 859 834 783 762 810 850 878 931 963 1001 1028 1051 1078 1102 1144 1161 1165 1113 1086 1055 1031 970 945 911 862 823 791 786 804 807 807 842 851 852 850 849 848 840 828 826 825 829 863 886 907 904 917 928 931 949 952 960 971 967 964 966 969 971 974 974 973 959 948 
1965 1970 1984 1986 1988 1985 1968 1939 1906 1829 1797 1738 1699 1626 1594 1560 1481 1429 1385 1347 1372 1364 1343 1299 1278 1258 1234 1193 1177 1168 1158 1135 1125 1107 1094 1086 1078 1071 1057 1050 1039 1032 1027 1024 1017 1031 1029 1026 1020 1014 984 972 1019 1018 1014 987 989 988 988 1012 1015 1018 1019 1026 1042 1047 1060 1065 1069 1067 1065 1059 1043 1052 1049 1043 1016 1008 1002 989 926 895 931 948 954 951 948 940 932 924 909 902 899 894 892 893 892 876 848 855 858 863 869 872 879 880 879 879 870 876 875 871 864 842 805 755 792 838 887 909 955 992 1021 1043 1069 1113 1128 1144 1161 1128 1104 1077 1018 985 952 928 876 848 818 782 782 803 806 822 847 850 850 846 842 835 831 828 822 823 844 866 891 890 907 925 928 936 939 945 968 967 963 964 968 970 972 974 970 960 955 
1994 2003 2011 2018 2022 2019 2009 1975 1945 1851 1816 1779 1738 1643 1597 1555 1462 1422 1384 1374 1406 1387 1363 1321 1299 1275 1253 1208 1194 1177 1155 1142 1130 1117 1097 1090 1086 1074 1071 1058 1052 1041 1034 1029 1021 1027 1027 1026 1027 1023 999 1001 1025 1025 1022 1008 1001 994 990 995 1004 1014 1017 1024 1032 1037 1049 1058 1063 1063 1063 1051 1060 1065 1064 1056 1030 1019 1015 1009 938 920 966 971 971 974 976 970 958 945 924 918 912 908 901 901 903 897 905 905 904 906 906 905 889 891 892 891 905 919 910 886 874 855 817 755 785 836 877 905 949 987 1024 1037 1047 1086 1116 1133 1153 1140 1116 1093 1035 1002 963 938 889 861 832 783 781 790 798 803 814 839 843 840 838 836 834 831 823 824 834 852 873 888 879 907 926 930 932 940 959 962 960 966 968 968 970 973 967 961 958 
2065 2070 2048 2061 2068 2054 2035 2005 1972 1870 1836 1787 1734 1630 1582 1538 1458 1429 1432 1447 1450 1430 1403 1361 1319 1293 1267 1221 1210 1194 1159 1149 1135 1121 1101 1095 1088 1078 1074 1070 1064 1054 1046 1040 1027 1022 1023 1025 1030 1027 1009 987 1028 1032 1030 1020 1017 1013 1003 995 1001 1007 1016 1018 1023 1033 1040 1052 1058 1065 1070 1068 1076 1075 1074 1067 1038 1030 1026 979 935 942 996 1014 1018 1027 1039 1027 1017 978 952 945 940 937 924 922 918 914 923 925 925 925 925 924 922 922 921 917 924 932 937 905 884 871 829 756 770 825 871 901 940 972 1023 1034 1041 1076 1092 1107 1120 1136 1125 1102 1061 1015 976 950 905 881 852 789 780 779 782 801 802 816 841 838 837 836 834 831 828 819 821 834 855 884 867 888 922 925 926 932 953 960 961 965 969 968 967 970 962 958 946 
2095 2099 2119 2132 2128 2060 2028 1980 1972 1870 1830 1778 1662 1615 1565 1519 1463 1464 1480 1486 1469 1450 1424 1377 1344 1313 1287 1254 1240 1224 1168 1154 1141 1128 1108 1100 1093 1079 1077 1074 1068 1058 1051 1041 1033 1029 1030 1029 1038 1040 1037 987 1030 1038 1036 1029 1027 1025 1011 1001 1003 1008 1017 1021 1026 1036 1042 1047 1049 1051 1047 1048 1061 1065 1080 1081 1047 1037 1018 954 935 968 1012 1033 1040 1044 1045 1045 1037 1020 1000 994 991 991 980 943 935 931 937 940 940 938 940 945 942 941 938 928 930 933 937 920 903 886 795 766 755 803 864 894 922 989 1019 1029 1036 1065 1082 1095 1108 1126 1125 1104 1069 1042 1014 981 930 910 887 802 781 778 779 798 801 803 840 838 837 836 833 832 829 823 817 812 827 851 852 879 904 922 922 926 949 958 962 963 968 969 966 965 959 951 945 
2130 2134 2143 2151 2138 2071 2034 1988 1917 1809 1765 1717 1618 1588 1567 1520 1503 1518 1530 1525 1502 1476 1448 1388 1351 1318 1281 1284 1270 1242 1201 1178 1162 1134 1123 1114 1096 1084 1077 1073 1063 1059 1053 1047 1038 1034 1031 1032 1042 1045 1042 982 1022 1046 1046 1041 1039 1040 1018 1011 1010 1013 1016 1022 1026 1047 1052 1056 1061 1060 1055 1047 1043 1048 1053 1059 1046 1020 985 977 966 1000 1024 1038 1041 1043 1045 1043 1036 1027 1020 1015 1012 1006 999 985 975 961 961 962 958 953 951 955 965 953 949 941 937 936 937 927 913 898 809 771 755 772 859 881 903 950 984 1006 1034 1058 1070 1082 1109 1118 1120 1106 1073 1049 1026 967 940 921 900 829 797 780 779 780 787 799 834 837 836 832 832 831 828 822 818 812 835 840 848 863 885 903 913 915 936 951 959 959 965 967 966 957 955 947 945 
2156 2163 2155 2149 2137 2062 2018 1969 1906 1802 1750 1699 1636 1618 1596 1586 1570 1591 1597 1574 1545 1499 1462 1389 1352 1323 1304 1310 1295 1262 1217 1195 1179 1146 1132 1119 1109 1089 1083 1075 1059 1057 1055 1050 1042 1039 1035 1037 1047 1049 1042 990 1026 1049 1045 1045 1046 1045 1038 1028 1021 1023 1021 1026 1030 1049 1057 1072 1073 1066 1063 1057 1042 1037 1037 1040 1013 991 977 1015 1032 1034 1035 1036 1044 1051 1040 1038 1032 1031 1037 1036 1037 1026 1013 992 983 973 973 974 974 963 958 963 983 987 985 961 946 942 939 936 925 915 833 782 755 762 846 867 889 930 962 986 1003 1045 1057 1062 1081 1098 1113 1106 1074 1052 1031 976 951 931 910 835 807 784 777 779 780 797 803 826 833 828 824 822 823 821 816 813 818 829 845 854 869 886 905 915 926 940 952 952 958 966 959 944 941 942 943 
2179 2169 2087 2075 2070 2030 1978 1916 1868 1789 1751 1723 1671 1651 1633 1621 1608 1626 1634 1581 1542 1505 1463 1378 1363 1360 1353 1325 1313 1284 1233 1215 1199 1164 1143 1129 1118 1095 1088 1081 1064 1060 1057 1055 1047 1045 1044 1041 1050 1050 1036 1007 1039 1050 1048 1048 1048 1046 1043 1038 1028 1030 1029 1030 1033 1051 1062 1070 1075 1072 1069 1064 1058 1052 1037 1011 994 992 992 1037 1042 1040 1036 1036 1042 1051 1049 1038 1035 1032 1031 1028 1027 1027 1019 1007 988 983 983 981 989 982 974 975 981 980 972 967 963 961 958 945 941 934 851 795 758 758 827 855 876 911 940 965 981 1023 1040 1048 1072 1084 1097 1100 1076 1058 1041 998 960 935 911 839 812 785 775 778 778 792 797 806 828 818 815 815 814 813 812 807 806 807 832 844 855 869 888 908 917 929 945 946 951 961 962 946 941 939 941 
2146 2103 2059 2046 2035 1978 1934 1894 1864 1848 1831 1809 1711 1694 1672 1639 1646 1657 1655 1577 1535 1502 1411 1389 1393 1394 1379 1364 1347 1325 1279 1259 1241 1198 1156 1141 1128 1105 1096 1089 1072 1066 1061 1056 1052 1049 1046 1044 1050 1049 1020 1049 1057 1056 1052 1051 1051 1047 1047 1042 1031 1041 1040 1040 1039 1052 1062 1068 1073 1073 1070 1068 1073 1068 1054 1020 1053 1043 1040 1048 1049 1047 1040 1037 1038 1041 1046 1040 1037 1030 1028 1027 1027 1033 1041 1044 1017 1010 1005 994 998 999 996 973 975 974 981 972 974 968 956 948 946 939 888 829 775 764 781 812 846 899 924 950 979 1000 1018 1030 1060 1075 1087 1087 1072 1059 1044 999 973 939 871 840 816 796 773 776 778 791 796 797 815 815 813 812 812 810 809 808 802 803 804 812 834 841 852 886 907 918 932 938 942 954 956 946 942 937 936 
2097 2078 2039 2015 2003 1968 1969 1959 1923 1909 1882 1863 1806 1786 1779 1726 1719 1694 1660 1570 1530 1495 1417 1421 1436 1439 1413 1394 1373 1326 1302 1282 1258 1221 1195 1176 1135 1122 1111 1102 1077 1072 1066 1060 1056 1052 1047 1046 1052 1036 1043 1060 1062 1062 1059 1057 1052 1049 1050 1048 1047 1052 1048 1048 1046 1053 1060 1068 1077 1076 1074 1069 1072 1065 1055 1031 1066 1077 1075 1073 1069 1068 1063 1057 1040 1037 1038 1036 1037 1030 1028 1027 1027 1031 1043 1055 1039 1027 1014 1016 1012 1013 1027 1001 985 983 994 981 981 974 959 951 945 941 900 852 791 760 772 789 827 878 899 921 955 966 985 1014 1045 1060 1075 1078 1064 1049 1035 999 975 940 868 839 818 797 773 772 773 787 792 794 809 814 813 812 809 809 809 808 796 798 802 812 826 835 840 871 888 901 917 924 934 947 945 944 942 938 935 
2066 2046 2031 1991 1982 1980 2001 2013 1987 1973 1949 1918 1865 1850 1830 1762 1727 1688 1640 1548 1499 1472 1476 1506 1529 1483 1449 1428 1399 1359 1333 1306 1276 1237 1212 1195 1149 1138 1124 1110 1093 1088 1082 1069 1065 1059 1051 1049 1052 1030 1048 1064 1066 1067 1065 1062 1056 1051 1053 1053 1052 1055 1057 1057 1059 1060 1063 1066 1077 1079 1076 1069 1064 1065 1057 1036 1066 1080 1079 1078 1077 1079 1073 1067 1058 1045 1040 1037 1034 1031 1029 1028 1028 1029 1033 1049 1057 1043 1028 1022 1019 1012 1020 1013 999 988 999 1001 1001 1001 978 958 944 938 908 863 807 755 765 776 809 867 884 909 948 958 973 990 1015 1027 1032 1041 1036 1026 1023 991 969 935 867 841 822 797 776 772 771 782 790 792 805 813 812 811 809 807 807 807 795 794 799 802 816 825 830 854 877 890 907 921 931 946 944 945 945 937 933 
2088 2070 2055 2034 2037 2054 2088 2104 2117 2037 2005 1935 1909 1893 1856 1767 1726 1677 1628 1539 1509 1506 1519 1553 1566 1559 1518 1489 1470 1415 1389 1332 1300 1250 1234 1215 1164 1152 1132 1118 1104 1098 1090 1076 1069 1064 1060 1057 1060 1056 1042 1067 1073 1071 1071 1069 1064 1056 1056 1056 1056 1059 1060 1062 1065 1067 1069 1071 1077 1078 1078 1075 1075 1075 1060 1041 1067 1084 1084 1082 1083 1090 1083 1074 1067 1057 1050 1045 1040 1036 1035 1033 1036 1036 1039 1044 1066 1055 1037 1025 1023 1015 1009 1016 1014 997 1009 1004 1010 1009 994 970 949 935 922 889 845 774 756 765 818 850 869 893 947 956 965 980 1006 1015 1015 1021 1022 1021 1010 963 948 924 869 840 829 805 778 774 772 774 789 791 800 812 812 810 808 807 807 806 803 794 791 792 795 805 818 841 858 879 902 911 926 938 944 946 947 938 933 
2116 2093 2079 2062 2078 2113 2144 2161 2172 2137 2083 1981 1934 1884 1836 1752 1714 1668 1579 1547 1543 1548 1564 1587 1603 1583 1559 1527 1505 1447 1417 1386 1322 1293 1274 1254 1196 1162 1144 1121 1113 1108 1101 1085 1079 1074 1066 1059 1062 1051 1051 1068 1074 1074 1080 1080 1078 1074 1071 1064 1064 1065 1067 1070 1070 1072 1073 1074 1080 1081 1081 1083 1083 1081 1077 1060 1080 1094 1095 1094 1093 1094 1087 1081 1077 1068 1063 1056 1051 1045 1045 1045 1049 1049 1052 1056 1058 1056 1052 1038 1034 1025 1019 1011 1016 1006 1008 1008 1015 1016 998 980 960 933 914 882 839 792 774 757 756 779 825 855 941 956 957 982 991 1002 1006 1009 1013 1013 976 949 934 916 866 841 826 790 781 776 771 770 783 789 814 812 811 810 808 807 807 806 788 786 786 793 796 799 800 824 842 858 874 881 909 920 936 944 948 939 937 
2162 2122 2105 2088 2124 2159 2191 2213 2188 2141 2086 1970 1919 1872 1829 1751 1724 1682 1610 1605 1615 1624 1608 1626 1642 1630 1599 1571 1544 1482 1454 1413 1345 1316 1288 1269 1216 1194 1176 1144 1136 1129 1123 1103 1089 1083 1067 1063 1062 1045 1066 1071 1075 1079 1082 1081 1081 1078 1076 1076 1077 1076 1077 1078 1079 1077 1078 1083 1086 1087 1087 1088 1088 1087 1087 1084 1080 1092 1102 1101 1100 1098 1095 1094 1092 1087 1082 1070 1066 1059 1056 1056 1061 1062 1063 1065 1066 1064 1058 1050 1048 1036 1029 1010 1007 1013 1013 1010 1012 1019 1001 989 970 933 921 884 845 820 798 780 760 756 783 833 907 943 957 958 968 978 996 1004 1007 1005 964 939 925 908 855 838 823 792 782 776 771 771 775 781 812 811 810 810 805 807 807 787 783 782 782 789 797 798 802 814 833 847 857 873 886 905 912 926 938 939 936 
2259 2200 2172 2145 2191 2226 2230 2237 2175 2132 2078 1968 1915 1867 1824 1758 1723 1679 1642 1657 1659 1655 1695 1710 1718 1709 1677 1641 1583 1515 1477 1435 1367 1341 1306 1283 1235 1209 1192 1151 1154 1146 1140 1114 1106 1098 1082 1076 1068 1051 1067 1071 1074 1083 1091 1087 1086 1081 1079 1081 1080 1080 1079 1078 1083 1085 1088 1092 1097 1099 1101 1099 1093 1090 1089 1091 1081 1098 1124 1123 1120 1110 1108 1106 1104 1100 1094 1085 1074 1069 1065 1064 1069 1067 1068 1073 1075 1078 1071 1057 1061 1051 1026 1014 1013 1019 1015 1012 1017 1021 1015 1004 986 940 928 898 874 855 824 802 775 761 761 802 870 917 944 946 953 968 985 1002 1001 996 957 929 907 898 850 833 822 796 785 775 769 770 773 778 811 809 809 806 784 783 782 782 782 782 780 785 793 797 800 805 819 828 843 860 873 904 910 916 925 938 935 
2270 2235 2210 2189 2208 2200 2181 2116 2085 2049 2013 1920 1891 1870 1779 1750 1716 1684 1680 1689 1693 1707 1726 1740 1741 1733 1701 1660 1628 1574 1522 1483 1396 1374 1327 1297 1244 1215 1194 1174 1171 1165 1156 1131 1114 1103 1087 1080 1068 1048 1073 1078 1081 1087 1093 1094 1088 1087 1086 1085 1083 1083 1084 1085 1090 1092 1093 1100 1103 1105 1106 1105 1104 1105 1110 1111 1103 1118 1138 1143 1144 1128 1123 1120 1118 1114 1109 1102 1086 1080 1078 1076 1078 1083 1089 1089 1089 1084 1074 1070 1062 1069 1037 1020 1014 1024 1022 1018 1019 1026 1022 1013 994 951 932 933 931 917 888 861 802 785 757 806 841 875 913 938 941 958 989 998 999 997 960 929 904 886 856 838 822 802 792 775 769 769 772 773 790 789 792 785 781 781 782 782 780 774 773 774 780 785 794 799 802 815 831 848 858 901 910 913 915 934 933 
2267 2231 2216 2192 2171 2150 2123 2063 2029 1993 1959 1901 1883 1859 1792 1769 1756 1752 1753 1725 1723 1747 1762 1768 1758 1724 1685 1653 1592 1559 1521 1485 1394 1365 1338 1267 1239 1234 1227 1206 1193 1179 1154 1136 1122 1108 1092 1081 1066 1049 1078 1085 1087 1087 1089 1092 1098 1096 1098 1096 1096 1097 1102 1095 1096 1099 1100 1105 1108 1111 1113 1113 1114 1116 1117 1118 1109 1124 1158 1178 1191 1184 1169 1161 1132 1130 1125 1117 1102 1095 1094 1096 1091 1094 1093 1094 1094 1091 1098 1082 1071 1066 1057 1051 1038 1030 1026 1025 1019 1031 1026 1023 1006 959 938 934 935 930 916 889 821 795 776 772 791 821 859 893 929 943 972 990 1001 1000 971 935 904 867 855 841 824 802 790 784 767 769 771 772 774 775 781 781 781 781 782 775 765 766 768 768 770 780 789 798 802 808 814 823 838 879 898 909 916 928 928 
2191 2165 2130 2116 2121 2095 2057 2003 1984 1962 1939 1892 1883 1871 1831 1813 1801 1805 1787 1769 1745 1791 1786 1757 1721 1690 1653 1622 1562 1526 1493 1458 1371 1337 1309 1265 1263 1260 1243 1223 1203 1187 1167 1150 1131 1116 1084 1077 1064 1060 1078 1087 1087 1087 1088 1093 1101 1104 1102 1104 1108 1110 1113 1115 1113 1111 1113 1116 1118 1118 1121 1121 1123 1122 1124 1127 1117 1153 1172 1197 1211 1216 1203 1190 1171 1167 1159 1148 1138 1131 1124 1106 1106 1109 1110 1111 1110 1110 1114 1101 1084 1072 1052 1049 1049 1032 1018 1025 1016 1027 1029 1025 1019 957 945 936 935 933 927 902 840 809 786 762 780 801 834 873 888 902 938 961 984 1001 992 949 905 863 852 837 823 795 787 782 766 768 771 771 771 771 771 780 781 781 780 766 765 766 767 769 768 775 783 794 802 806 808 816 836 873 893 905 914 915 918 
2162 2137 2117 2095 2088 2065 2028 1998 1988 1984 1936 1922 1914 1907 1882 1867 1864 1856 1813 1778 1746 1777 1762 1723 1682 1603 1569 1530 1481 1442 1414 1386 1342 1315 1307 1309 1302 1291 1264 1234 1222 1198 1171 1152 1136 1125 1084 1070 1059 1076 1080 1084 1088 1088 1090 1094 1103 1107 1107 1113 1118 1121 1121 1122 1120 1119 1120 1124 1124 1129 1135 1134 1136 1138 1148 1138 1128 1161 1185 1211 1235 1238 1229 1218 1193 1186 1175 1167 1161 1153 1147 1144 1142 1143 1148 1154 1156 1132 1133 1122 1099 1087 1067 1054 1043 1037 1028 1015 1010 1011 1016 1014 987 982 970 951 933 936 946 891 854 825 793 758 776 790 816 857 866 879 914 939 965 982 1000 981 934 866 843 824 807 788 784 778 764 768 770 771 771 771 771 780 781 781 778 766 766 766 766 767 769 769 778 784 799 806 801 802 818 870 891 900 911 916 915 
2178 2163 2138 2115 2108 2084 2058 2029 2033 2033 2033 2034 2039 2046 2019 2007 1930 1882 1829 1784 1741 1750 1724 1681 1605 1566 1532 1495 1450 1428 1416 1407 1401 1393 1393 1381 1367 1346 1257 1245 1235 1213 1176 1157 1139 1117 1082 1071 1061 1085 1090 1089 1086 1094 1099 1100 1114 1117 1119 1127 1129 1131 1130 1132 1131 1130 1128 1131 1133 1138 1142 1142 1142 1143 1146 1149 1147 1166 1190 1232 1283 1296 1252 1242 1224 1211 1199 1195 1187 1177 1174 1170 1168 1168 1168 1177 1181 1184 1171 1151 1132 1118 1094 1069 1061 1046 1039 1031 1025 1012 1015 1012 1010 996 978 963 933 932 937 922 887 854 811 757 761 783 830 843 854 869 892 913 942 972 988 982 941 857 826 801 768 766 766 766 764 766 768 770 771 771 771 774 780 781 771 766 766 766 766 765 769 769 777 779 784 803 795 794 800 844 870 868 902 902 889 
2257 2193 2172 2145 2144 2134 2112 2071 2077 2085 2099 2102 2104 2106 2051 2021 1966 1866 1809 1764 1723 1685 1646 1641 1577 1546 1521 1507 1476 1463 1460 1455 1444 1439 1433 1414 1396 1367 1294 1248 1236 1229 1185 1165 1137 1095 1084 1075 1068 1099 1118 1114 1107 1103 1099 1105 1117 1121 1128 1141 1141 1146 1151 1156 1154 1152 1140 1137 1145 1149 1152 1154 1153 1150 1156 1162 1160 1169 1193 1226 1273 1301 1288 1281 1277 1269 1262 1256 1212 1207 1208 1201 1200 1200 1196 1201 1205 1205 1186 1165 1149 1135 1107 1092 1084 1074 1069 1063 1056 1035 1036 1035 1019 1006 987 979 939 933 932 938 910 872 817 762 757 769 799 821 833 850 884 881 901 949 974 981 947 852 818 787 762 762 761 762 763 763 765 770 770 770 772 770 769 779 765 765 766 766 765 765 767 771 778 779 779 793 789 789 803 826 844 850 870 902 911 
2311 2291 2262 2234 2243 2249 2244 2152 2145 2144 2161 2169 2157 2125 2027 1984 1933 1830 1778 1743 1711 1659 1627 1608 1595 1603 1600 1605 1581 1514 1510 1498 1490 1488 1472 1442 1423 1383 1311 1265 1233 1245 1194 1172 1148 1111 1091 1078 1084 1107 1121 1131 1128 1123 1112 1114 1130 1132 1141 1152 1151 1155 1158 1166 1164 1166 1163 1166 1174 1181 1182 1186 1172 1167 1172 1176 1175 1173 1193 1221 1293 1302 1295 1295 1295 1291 1287 1279 1269 1267 1268 1260 1262 1259 1223 1224 1221 1223 1201 1184 1171 1151 1140 1117 1097 1086 1079 1073 1065 1042 1048 1047 1035 1026 1015 1001 951 937 933 934 925 892 837 775 759 757 772 797 812 826 873 879 881 907 941 963 951 867 817 775 761 761 765 770 762 763 763 768 769 769 769 769 767 765 766 766 766 767 768 766 764 770 777 779 777 783 783 786 820 857 873 883 891 900 909 
2363 2345 2314 2298 2290 2295 2290 2279 2267 2249 2174 2142 2109 2048 2008 1955 1889 1800 1755 1726 1671 1645 1636 1638 1637 1643 1652 1653 1624 1619 1614 1587 1582 1568 1547 1469 1445 1404 1326 1276 1236 1248 1205 1187 1175 1112 1086 1083 1094 1112 1127 1134 1141 1144 1145 1151 1160 1147 1156 1167 1162 1164 1168 1176 1178 1183 1182 1184 1190 1200 1198 1204 1214 1207 1204 1207 1205 1188 1199 1217 1290 1306 1306 1311 1313 1309 1310 1305 1299 1296 1292 1288 1291 1287 1284 1281 1275 1272 1247 1233 1220 1177 1167 1145 1117 1093 1089 1082 1058 1053 1056 1055 1046 1040 1031 996 984 958 942 933 930 923 819 790 772 763 757 765 792 837 853 871 882 899 910 947 949 869 835 782 759 781 804 806 765 762 763 767 768 769 768 769 768 764 765 764 764 765 767 767 766 764 768 771 779 778 783 792 835 855 867 880 893 900 907 
2379 2377 2361 2347 2331 2326 2301 2290 2274 2235 2133 2101 2072 1976 1932 1878 1828 1766 1733 1705 1662 1657 1662 1666 1677 1683 1698 1684 1667 1670 1659 1630 1620 1598 1533 1499 1462 1425 1320 1291 1267 1238 1204 1205 1204 1107 1085 1092 1115 1117 1132 1139 1154 1160 1167 1176 1174 1179 1181 1201 1208 1210 1217 1189 1195 1200 1206 1201 1205 1216 1220 1219 1232 1230 1223 1222 1218 1200 1204 1213 1265 1311 1340 1346 1349 1331 1336 1332 1333 1330 1325 1323 1321 1317 1315 1311 1302 1296 1274 1259 1246 1229 1221 1207 1179 1126 1110 1090 1076 1071 1069 1062 1055 1047 1043 1006 993 981 956 941 933 928 885 846 805 785 769 758 762 824 836 847 862 888 891 917 895 859 836 793 763 799 828 820 801 787 765 762 763 764 763 768 765 763 764 767 768 765 765 765 767 765 765 768 777 778 787 800 829 841 855 869 889 902 905 
2327 2339 2344 2322 2325 2310 2281 2272 2253 2208 2105 2058 2030 1948 1898 1849 1811 1753 1728 1706 1697 1705 1719 1729 1759 1765 1739 1728 1715 1715 1701 1666 1646 1619 1542 1504 1464 1424 1337 1305 1274 1242 1228 1203 1165 1098 1104 1126 1121 1128 1140 1144 1166 1172 1186 1191 1189 1196 1199 1223 1230 1234 1243 1233 1234 1233 1249 1249 1254 1252 1240 1233 1244 1260 1250 1240 1221 1212 1211 1217 1248 1294 1339 1362 1366 1378 1390 1388 1387 1381 1382 1382 1353 1346 1343 1340 1329 1321 1309 1290 1278 1260 1245 1231 1207 1158 1138 1118 1095 1086 1082 1081 1069 1053 1048 1017 998 991 973 956 943 931 909 873 833 802 779 762 758 775 793 812 823 816 817 873 870 841 821 790 769 813 845 835 810 796 789 770 765 763 763 763 763 765 767 768 768 768 767 766 765 765 767 764 772 775 788 795 823 835 848 877 881 888 901 
2297 2318 2315 2298 2271 2255 2225 2219 2187 2082 2049 2033 1993 1917 1873 1827 1795 1744 1733 1727 1725 1730 1740 1757 1790 1799 1803 1793 1779 1769 1752 1703 1663 1626 1545 1503 1462 1422 1341 1301 1269 1215 1200 1175 1134 1104 1121 1140 1153 1155 1164 1173 1203 1215 1202 1214 1212 1212 1218 1248 1252 1258 1260 1252 1253 1253 1269 1279 1286 1275 1279 1277 1269 1301 1303 1286 1236 1223 1227 1229 1246 1278 1325 1379 1383 1398 1410 1414 1414 1407 1404 1405 1405 1395 1388 1384 1377 1368 1341 1321 1311 1286 1267 1253 1199 1178 1168 1148 1118 1100 1087 1078 1075 1065 1056 1039 1022 1005 977 970 956 937 921 897 866 834 789 776 759 762 771 776 779 761 774 810 835 829 794 760 813 852 862 860 836 811 803 796 790 778 769 770 772 773 769 769 770 768 768 768 768 767 764 763 766 770 781 790 818 832 845 876 875 884 897 
2270 2290 2284 2272 2251 2232 2200 2187 2159 2052 2016 1980 1934 1864 1840 1818 1778 1755 1754 1755 1752 1757 1771 1810 1817 1820 1827 1818 1800 1781 1742 1706 1662 1620 1529 1486 1451 1368 1330 1297 1261 1199 1179 1150 1119 1115 1134 1153 1170 1173 1178 1192 1223 1234 1248 1271 1273 1267 1273 1304 1310 1283 1284 1274 1265 1271 1290 1308 1318 1300 1296 1302 1296 1311 1328 1316 1271 1254 1250 1261 1260 1265 1310 1385 1396 1414 1429 1441 1440 1436 1426 1427 1429 1419 1412 1402 1394 1375 1368 1364 1362 1332 1313 1296 1223 1196 1186 1175 1151 1124 1099 1077 1076 1074 1065 1043 1033 1017 984 972 963 946 927 918 899 838 808 793 781 758 758 758 758 758 759 781 788 777 764 808 842 869 886 900 879 852 827 824 808 803 801 796 792 788 770 768 769 769 769 768 769 767 765 763 763 761 761 771 817 826 842 875 876 882 889 
2234 2251 2252 2243 2229 2208 2167 2155 2134 2028 1989 1955 1921 1870 1862 1840 1811 1810 1811 1813 1817 1821 1829 1832 1838 1843 1851 1834 1812 1794 1748 1709 1655 1598 1510 1468 1429 1353 1319 1285 1250 1191 1157 1129 1124 1127 1145 1162 1183 1187 1192 1227 1249 1267 1269 1301 1307 1304 1325 1338 1348 1355 1341 1323 1302 1315 1329 1330 1343 1329 1325 1329 1321 1318 1341 1337 1292 1279 1268 1276 1275 1274 1291 1373 1406 1434 1460 1482 1490 1463 1449 1451 1453 1446 1435 1422 1411 1391 1384 1375 1369 1345 1327 1310 1264 1231 1217 1211 1192 1166 1140 1080 1077 1074 1075 1051 1040 1026 994 979 966 952 926 917 903 857 868 855 834 803 796 793 767 764 759 758 761 766 785 849 866 886 904 913 906 886 849 841 837 835 823 822 817 798 775 770 768 772 771 769 766 767 767 763 763 764 762 774 800 820 833 866 876 878 883 
2217 2224 2211 2198 2179 2157 2087 2050 2089 2004 1960 1937 1921 1900 1883 1864 1846 1845 1848 1845 1850 1844 1849 1874 1877 1877 1851 1849 1827 1803 1752 1707 1649 1591 1502 1452 1408 1335 1303 1272 1242 1183 1150 1129 1149 1167 1175 1189 1208 1208 1217 1244 1271 1291 1298 1331 1346 1342 1351 1369 1381 1385 1364 1342 1320 1334 1351 1370 1387 1376 1363 1362 1343 1328 1353 1357 1314 1301 1290 1303 1296 1287 1292 1360 1399 1438 1494 1504 1513 1515 1513 1511 1502 1495 1487 1445 1431 1409 1398 1388 1371 1358 1341 1323 1281 1250 1232 1223 1205 1177 1153 1112 1090 1079 1077 1087 1065 1036 1001 987 973 958 928 916 896 877 880 872 859 830 820 816 811 790 797 817 831 840 858 876 890 908 927 930 924 915 870 859 853 846 834 830 826 807 793 778 770 772 771 769 764 764 765 763 764 763 764 767 775 789 811 860 865 868 883 
2204 2195 2179 2169 2148 2080 2043 2014 1985 1947 1937 1935 1958 1962 1914 1908 1891 1891 1886 1888 1881 1873 1871 1885 1888 1884 1856 1842 1824 1801 1748 1718 1670 1620 1523 1478 1425 1341 1301 1266 1236 1177 1145 1129 1170 1181 1188 1201 1222 1221 1231 1272 1287 1307 1340 1392 1412 1413 1391 1400 1412 1412 1384 1363 1346 1353 1372 1393 1411 1402 1384 1379 1361 1369 1386 1396 1361 1342 1321 1339 1319 1303 1298 1344 1384 1438 1504 1520 1537 1544 1543 1541 1530 1526 1520 1511 1502 1461 1446 1432 1403 1375 1360 1340 1296 1271 1247 1226 1212 1189 1164 1124 1105 1084 1082 1089 1084 1063 1021 1005 992 957 948 926 908 895 891 885 861 847 842 839 827 803 817 853 884 878 884 909 929 955 963 950 945 928 894 879 868 861 848 838 835 820 801 783 774 773 772 769 765 764 763 763 763 763 764 767 769 773 785 847 859 865 884 
2191 2183 2152 2135 2107 2039 2010 1993 1972 1940 1939 1945 1989 2013 2025 2019 1989 1974 1962 1959 1948 1903 1895 1886 1883 1875 1822 1827 1810 1784 1731 1702 1659 1573 1525 1477 1430 1341 1300 1259 1202 1169 1143 1139 1186 1193 1201 1230 1232 1231 1243 1286 1308 1334 1380 1408 1431 1443 1450 1466 1469 1471 1458 1419 1372 1376 1397 1417 1437 1434 1416 1405 1382 1386 1399 1413 1388 1370 1349 1355 1357 1343 1330 1343 1377 1427 1511 1535 1554 1562 1575 1576 1565 1557 1552 1543 1529 1491 1473 1460 1416 1407 1395 1380 1328 1298 1275 1255 1225 1205 1184 1134 1117 1099 1074 1072 1069 1057 1036 1016 1001 971 960 947 931 918 916 912 886 886 868 860 840 814 836 906 919 915 911 927 953 970 973 968 959 950 924 909 894 873 865 852 839 827 807 787 774 773 771 768 765 763 759 763 763 765 764 768 767 769 769 804 833 860 882 
2166 2159 2130 2087 2038 2010 1995 1990 1983 1954 1969 1992 2033 2055 2074 2074 2045 2017 2015 1999 1975 1951 1918 1876 1848 1822 1785 1808 1784 1750 1692 1669 1639 1558 1512 1468 1421 1339 1299 1257 1194 1163 1141 1151 1204 1212 1225 1259 1259 1239 1255 1302 1322 1348 1386 1416 1445 1468 1474 1489 1496 1502 1487 1447 1429 1435 1443 1454 1500 1496 1471 1428 1402 1407 1417 1434 1411 1399 1376 1371 1375 1365 1340 1345 1373 1424 1521 1556 1579 1592 1609 1612 1600 1588 1585 1573 1558 1522 1504 1489 1439 1424 1411 1397 1337 1315 1295 1268 1257 1240 1219 1179 1143 1114 1080 1074 1074 1072 1059 1040 1014 987 978 960 947 928 924 922 902 906 904 889 845 827 848 921 941 940 931 950 970 985 987 981 970 960 937 919 906 882 871 858 847 828 814 802 781 773 770 768 763 759 760 763 764 766 765 767 769 768 771 784 806 826 855 
2155 2142 2123 2080 2033 2004 2007 2012 2030 2051 2079 2052 2082 2097 2121 2133 2099 2080 2071 2027 1989 1950 1911 1848 1827 1795 1757 1737 1704 1669 1608 1582 1558 1538 1500 1453 1409 1336 1295 1254 1193 1167 1148 1155 1208 1223 1243 1270 1275 1272 1278 1334 1361 1386 1436 1423 1445 1480 1509 1514 1524 1534 1508 1467 1470 1465 1466 1479 1523 1513 1486 1472 1457 1476 1480 1463 1445 1417 1387 1389 1394 1389 1356 1356 1374 1420 1523 1564 1590 1619 1623 1625 1629 1632 1634 1636 1606 1590 1564 1512 1466 1448 1434 1382 1361 1345 1318 1280 1261 1243 1203 1183 1155 1128 1093 1087 1084 1081 1067 1056 1054 1005 990 974 961 938 933 927 916 918 916 901 858 848 838 902 936 952 953 962 983 1000 1002 995 985 972 954 933 916 893 880 867 857 839 824 808 788 774 768 762 762 765 770 770 767 767 767 767 769 769 770 773 782 798 833 
2150 2134 2116 2077 2044 2018 2026 2029 2058 2099 2130 2156 2178 2202 2209 2242 2219 2193 2126 2032 1980 1935 1851 1817 1795 1768 1722 1699 1664 1600 1566 1533 1506 1457 1427 1392 1344 1315 1281 1247 1196 1176 1157 1157 1220 1241 1261 1284 1288 1286 1287 1341 1374 1398 1445 1470 1493 1512 1566 1578 1584 1565 1529 1507 1517 1500 1496 1508 1538 1532 1503 1490 1483 1501 1499 1470 1451 1429 1409 1430 1442 1436 1397 1368 1378 1414 1522 1568 1598 1642 1651 1652 1655 1653 1652 1654 1642 1626 1601 1574 1534 1509 1483 1442 1414 1368 1346 1297 1279 1251 1207 1189 1166 1140 1093 1081 1076 1071 1067 1057 1049 1032 1021 1006 980 967 955 935 923 922 921 889 874 869 857 879 913 941 951 955 978 997 1013 1018 1010 975 969 954 934 902 891 879 868 850 835 818 795 780 770 762 767 772 773 773 773 773 771 768 770 769 771 772 776 791 815 
2136 2121 2108 2078 2054 2045 2043 2046 2075 2119 2158 2191 2238 2258 2270 2289 2241 2185 2132 2023 1973 1931 1844 1808 1773 1744 1689 1660 1626 1564 1528 1496 1465 1416 1388 1361 1316 1294 1273 1248 1208 1177 1162 1212 1245 1268 1277 1294 1301 1303 1318 1347 1379 1407 1459 1486 1516 1568 1591 1606 1619 1631 1619 1598 1600 1582 1579 1591 1565 1561 1530 1512 1515 1526 1513 1478 1459 1435 1437 1460 1477 1471 1419 1399 1395 1409 1501 1555 1604 1661 1670 1679 1683 1684 1680 1677 1667 1654 1634 1608 1564 1533 1511 1464 1448 1423 1398 1365 1329 1300 1239 1198 1176 1153 1101 1085 1075 1068 1065 1059 1051 1039 1031 1021 992 980 967 952 935 935 941 925 916 886 872 862 894 930 949 948 969 995 1008 1019 1019 983 971 959 944 917 907 897 875 868 861 835 804 787 770 770 773 774 774 773 774 775 772 768 770 770 771 772 773 776 786 
2127 2113 2102 2093 2087 2107 2118 2124 2138 2121 2154 2184 2282 2313 2330 2298 2238 2186 2144 2047 1997 1949 1857 1817 1780 1747 1716 1693 1665 1612 1546 1516 1492 1423 1397 1373 1328 1303 1280 1256 1190 1169 1171 1228 1255 1274 1290 1315 1325 1332 1345 1362 1382 1412 1478 1512 1542 1593 1613 1629 1651 1676 1654 1638 1651 1631 1629 1652 1640 1614 1588 1569 1578 1565 1525 1480 1461 1454 1474 1488 1503 1500 1439 1417 1412 1445 1487 1544 1599 1665 1689 1712 1741 1742 1740 1734 1688 1685 1667 1616 1594 1561 1543 1494 1477 1451 1432 1399 1360 1321 1269 1247 1221 1194 1141 1114 1092 1071 1064 1059 1053 1042 1035 1028 1003 988 976 962 943 939 945 942 932 925 911 885 875 915 958 949 954 980 1000 1014 1024 990 977 962 954 926 914 902 882 873 864 853 824 797 779 767 772 771 772 772 774 774 769 771 774 773 771 772 773 775 776 
2131 2114 2113 2111 2123 2137 2164 2189 2196 2205 2216 2220 2271 2326 2378 2318 2266 2223 2119 2061 2011 1959 1867 1826 1800 1778 1760 1738 1721 1655 1629 1604 1581 1519 1481 1442 1361 1319 1290 1256 1184 1175 1188 1241 1265 1282 1297 1322 1334 1346 1361 1370 1396 1423 1490 1523 1560 1622 1647 1651 1672 1716 1697 1687 1697 1684 1681 1714 1678 1646 1618 1610 1599 1570 1541 1490 1480 1487 1536 1547 1528 1525 1458 1444 1433 1443 1477 1528 1581 1663 1689 1721 1759 1760 1759 1757 1757 1742 1719 1660 1637 1620 1573 1534 1506 1489 1443 1431 1382 1344 1303 1286 1259 1203 1174 1143 1113 1078 1070 1063 1050 1031 1027 1027 1011 998 984 961 953 945 945 952 945 940 927 897 882 916 963 957 958 966 991 986 998 1003 983 968 960 934 920 908 887 878 866 854 824 804 779 765 770 772 770 774 774 775 776 777 776 778 779 780 777 777 778 
2161 2141 2146 2151 2163 2180 2208 2248 2257 2254 2248 2233 2276 2329 2370 2326 2289 2246 2152 2097 2039 1975 1888 1855 1837 1812 1799 1778 1756 1689 1658 1633 1574 1535 1494 1445 1359 1313 1268 1194 1203 1203 1222 1254 1276 1291 1317 1331 1346 1359 1379 1384 1405 1464 1495 1526 1562 1629 1655 1676 1703 1773 1799 1810 1842 1754 1732 1778 1737 1686 1656 1652 1613 1578 1549 1507 1494 1500 1551 1579 1586 1574 1523 1510 1496 1458 1472 1517 1563 1650 1682 1717 1771 1779 1788 1787 1767 1755 1733 1678 1657 1643 1621 1586 1573 1550 1515 1482 1441 1382 1342 1325 1302 1238 1205 1173 1143 1091 1075 1065 1056 1042 1026 1021 1013 1005 992 974 961 958 952 958 954 950 920 906 887 913 966 964 964 979 987 988 992 1005 995 986 961 952 936 921 894 881 870 840 825 806 783 765 768 772 771 773 774 774 777 779 780 781 784 787 788 790 790 
2259 2212 2221 2254 2268 2275 2258 2299 2321 2300 2262 2262 2307 2354 2362 2309 2268 2217 2145 2115 2067 2021 1953 1925 1900 1839 1817 1786 1776 1696 1659 1633 1569 1532 1491 1444 1354 1306 1259 1202 1224 1221 1236 1281 1295 1306 1333 1354 1378 1391 1395 1408 1418 1471 1499 1531 1563 1634 1664 1687 1751 1790 1822 1852 1895 1847 1824 1862 1828 1807 1771 1673 1628 1589 1543 1520 1507 1513 1562 1591 1611 1575 1556 1537 1520 1473 1476 1494 1528 1611 1651 1694 1758 1786 1808 1819 1789 1769 1744 1704 1686 1671 1653 1613 1596 1582 1556 1531 1501 1481 1414 1393 1370 1312 1272 1200 1170 1108 1086 1071 1060 1050 1035 1021 1014 1006 993 973 961 957 951 952 951 952 937 921 903 910 968 969 969 977 987 991 988 1003 998 993 969 961 947 928 905 890 872 846 830 816 797 765 766 770 771 773 774 776 778 779 781 783 787 788 789 792 793 
2246 2238 2257 2257 2229 2235 2260 2324 2346 2327 2321 2348 2349 2360 2344 2290 2259 2208 2103 2076 2037 1999 1927 1898 1871 1806 1782 1749 1718 1634 1599 1563 1491 1461 1469 1430 1348 1308 1264 1217 1242 1244 1248 1292 1305 1314 1342 1369 1397 1413 1424 1440 1451 1489 1511 1539 1562 1632 1664 1690 1757 1792 1825 1861 1921 1922 1901 1897 1885 1848 1783 1676 1646 1623 1565 1543 1536 1546 1578 1608 1630 1599 1580 1561 1537 1498 1495 1494 1556 1596 1634 1673 1741 1774 1805 1852 1844 1830 1813 1772 1715 1702 1668 1646 1625 1613 1588 1574 1555 1484 1448 1417 1395 1339 1296 1272 1235 1158 1121 1096 1064 1054 1044 1030 1011 1006 991 972 964 958 951 949 948 949 941 917 905 906 969 977 975 978 981 992 992 996 1001 995 973 967 956 937 911 892 877 853 832 818 804 772 765 765 774 773 775 776 778 779 781 785 787 788 790 794 800 
2255 2244 2243 2224 2175 2177 2207 2278 2285 2288 2292 2329 2329 2328 2282 2266 2247 2215 2125 2060 2011 1937 1896 1858 1832 1776 1748 1711 1638 1602 1571 1535 1465 1431 1400 1329 1297 1275 1244 1255 1262 1265 1262 1299 1312 1321 1356 1383 1411 1433 1453 1459 1468 1511 1529 1556 1585 1644 1668 1696 1772 1805 1825 1859 1921 1948 1957 1954 1912 1847 1791 1696 1663 1634 1573 1559 1555 1568 1620 1649 1670 1644 1623 1593 1550 1515 1507 1503 1558 1588 1622 1658 1724 1757 1791 1859 1872 1871 1854 1814 1792 1770 1720 1699 1682 1669 1618 1607 1603 1534 1485 1449 1419 1354 1330 1306 1229 1194 1151 1122 1079 1065 1053 1032 1018 1008 1000 977 966 960 949 949 948 945 939 922 917 937 963 975 977 981 983 991 987 985 992 995 975 969 961 948 917 898 884 856 839 822 811 782 770 765 774 774 775 777 780 782 783 786 787 789 789 797 800 
2270 2258 2245 2226 2166 2157 2163 2216 2227 2240 2252 2287 2294 2300 2235 2226 2223 2206 2144 2100 2054 1965 1929 1895 1867 1774 1750 1728 1661 1636 1606 1577 1505 1465 1427 1350 1308 1277 1244 1273 1299 1304 1301 1314 1328 1344 1383 1395 1424 1476 1489 1489 1495 1529 1553 1571 1628 1661 1690 1724 1784 1811 1832 1881 1909 1936 1962 1998 1953 1874 1827 1719 1681 1647 1585 1577 1580 1597 1648 1672 1695 1668 1639 1606 1575 1552 1543 1539 1584 1625 1622 1651 1711 1748 1786 1852 1884 1908 1900 1856 1833 1806 1749 1726 1710 1697 1679 1668 1661 1613 1557 1510 1445 1380 1358 1334 1268 1232 1192 1156 1095 1077 1062 1036 1030 1021 1006 987 974 963 954 952 950 947 935 934 927 928 952 969 975 987 989 994 990 985 986 992 977 968 962 954 933 913 896 875 848 830 811 797 781 768 769 776 777 780 781 782 784 785 786 787 792 795 797 
2269 2257 2243 2228 2187 2166 2155 2107 2118 2194 2216 2251 2248 2270 2197 2164 2174 2157 2123 2093 2059 1991 1960 1923 1887 1832 1824 1811 1749 1723 1686 1619 1551 1498 1461 1372 1329 1292 1255 1283 1313 1323 1320 1320 1337 1351 1392 1419 1447 1513 1534 1541 1548 1550 1570 1590 1646 1674 1705 1736 1788 1809 1828 1874 1902 1927 1956 2003 1967 1909 1797 1755 1723 1683 1620 1598 1604 1655 1679 1703 1725 1682 1638 1614 1583 1568 1558 1554 1591 1640 1674 1730 1752 1768 1793 1842 1878 1916 1926 1896 1871 1843 1778 1758 1739 1725 1707 1696 1684 1628 1580 1536 1500 1446 1416 1388 1337 1305 1274 1195 1128 1097 1079 1047 1039 1035 1022 999 984 968 958 956 954 950 943 939 933 925 934 956 975 994 997 998 992 989 985 989 982 970 960 962 942 921 899 876 858 842 822 811 798 787 765 774 777 785 782 782 784 784 785 786 788 792 796 
2268 2256 2238 2202 2185 2167 2147 2072 2078 2116 2181 2191 2166 2145 2129 2101 2111 2082 2054 2046 2029 1993 1965 1925 1888 1837 1835 1830 1774 1742 1702 1656 1571 1527 1475 1385 1344 1299 1251 1295 1321 1331 1337 1338 1345 1359 1401 1424 1456 1522 1554 1569 1580 1605 1623 1644 1691 1724 1751 1749 1797 1819 1838 1878 1901 1927 1959 2017 1983 1938 1825 1781 1731 1680 1644 1638 1641 1693 1726 1749 1778 1687 1648 1639 1603 1585 1573 1571 1595 1633 1669 1738 1770 1792 1818 1864 1882 1916 1972 1974 1950 1922 1867 1798 1774 1744 1733 1720 1708 1644 1596 1552 1491 1472 1445 1412 1362 1335 1308 1258 1223 1187 1146 1083 1062 1040 1020 1011 996 976 964 961 957 953 946 943 940 933 932 950 966 992 1006 1008 998 994 987 984 990 973 959 962 950 927 901 873 863 856 833 818 805 795 770 765 773 789 790 783 784 784 785 785 786 790 794 
2274 2257 2237 2215 2205 2199 2170 2061 2058 2088 2143 2152 2139 2100 2071 2051 2015 2003 1972 1940 1943 1921 1941 1906 1840 1824 1825 1818 1773 1745 1709 1619 1578 1533 1480 1387 1348 1305 1262 1303 1328 1350 1367 1370 1362 1383 1407 1430 1463 1537 1568 1592 1625 1643 1658 1673 1711 1740 1767 1793 1846 1862 1886 1941 1979 2003 1989 2064 2012 1963 1838 1780 1729 1697 1666 1658 1664 1725 1764 1795 1815 1734 1723 1719 1653 1625 1610 1623 1599 1627 1660 1734 1774 1803 1836 1885 1907 1932 1977 1996 1996 1972 1911 1884 1857 1811 1798 1783 1767 1657 1602 1566 1521 1497 1471 1435 1383 1361 1338 1300 1266 1227 1188 1114 1085 1064 1041 1035 1026 1007 979 966 961 954 951 945 940 942 936 947 971 985 1000 1009 1000 997 991 983 986 974 960 955 957 931 887 877 871 867 844 828 813 801 778 765 767 782 783 782 783 784 783 783 786 789 791 
2301 2283 2271 2269 2260 2231 2178 2065 2043 2066 2104 2107 2112 2072 2007 1998 1964 1954 1925 1896 1896 1875 1844 1826 1766 1758 1759 1753 1742 1742 1710 1624 1584 1538 1484 1393 1351 1312 1262 1302 1326 1356 1381 1386 1388 1403 1420 1439 1470 1548 1579 1610 1664 1687 1699 1713 1734 1765 1793 1842 1870 1889 1915 1969 2001 2036 2110 2137 2105 2011 1877 1827 1758 1712 1691 1686 1694 1761 1803 1853 1804 1783 1769 1755 1675 1649 1629 1645 1636 1643 1671 1748 1781 1811 1843 1891 1917 1940 1986 2004 2010 2001 1964 1936 1906 1857 1837 1818 1798 1710 1673 1631 1560 1537 1520 1496 1402 1381 1360 1323 1298 1263 1224 1145 1114 1089 1048 1036 1028 1014 987 978 973 962 956 949 948 948 941 948 966 976 992 1003 1001 1000 997 982 986 975 960 950 947 939 904 889 885 878 861 848 820 797 785 769 765 779 780 781 782 783 782 783 786 789 790 
2261 2242 2228 2216 2211 2191 2112 2068 2025 2011 2022 2023 2000 2023 1951 1947 1925 1904 1881 1860 1851 1835 1797 1775 1718 1711 1707 1702 1703 1698 1686 1632 1593 1542 1487 1391 1349 1314 1258 1296 1323 1357 1391 1400 1410 1422 1432 1443 1467 1543 1585 1622 1700 1732 1765 1805 1828 1796 1834 1869 1899 1924 1953 2006 2036 2064 2108 2132 2130 2052 1918 1858 1825 1770 1746 1740 1749 1807 1851 1873 1854 1836 1816 1774 1693 1668 1654 1674 1662 1663 1688 1751 1781 1810 1873 1902 1927 1952 1995 1991 2003 2002 2000 1981 1953 1910 1883 1856 1789 1749 1716 1681 1604 1570 1545 1523 1449 1414 1390 1355 1328 1298 1248 1175 1143 1118 1058 1041 1027 1014 991 987 980 966 960 955 954 948 949 957 965 969 983 990 1005 999 1001 987 978 973 967 953 946 940 915 898 887 880 870 856 841 809 795 784 770 768 780 780 783 782 782 783 787 790 789 
2219 2206 2190 2172 2170 2151 2087 2043 2006 1967 1961 1955 1936 1877 1854 1834 1826 1799 1791 1816 1807 1790 1756 1736 1683 1676 1659 1646 1641 1647 1650 1626 1590 1537 1433 1387 1349 1313 1265 1290 1325 1352 1397 1409 1422 1447 1457 1464 1468 1537 1578 1614 1696 1737 1773 1820 1881 1897 1910 1956 1976 2008 2027 2042 2071 2100 2113 2141 2144 2077 1949 1903 1880 1816 1784 1775 1773 1820 1859 1897 1949 1921 1860 1810 1760 1698 1678 1702 1690 1690 1721 1764 1786 1814 1872 1905 1928 1951 1982 1963 1949 1957 1970 1969 1965 1941 1932 1889 1829 1794 1758 1711 1644 1607 1574 1511 1472 1431 1402 1359 1335 1307 1239 1208 1179 1151 1090 1058 1046 1013 1001 993 986 973 966 961 953 950 952 958 966 972 978 1000 1008 1000 998 994 988 987 976 958 947 941 922 906 890 882 871 865 850 813 802 791 776 766 770 779 779 781 782 782 787 788 788 
2160 2151 2125 2095 2122 2112 2047 2006 1957 1920 1892 1889 1878 1829 1814 1802 1795 1766 1757 1748 1726 1711 1698 1683 1651 1636 1626 1602 1601 1607 1605 1605 1571 1520 1424 1380 1342 1309 1277 1306 1335 1402 1420 1437 1456 1489 1506 1514 1509 1531 1572 1608 1694 1735 1771 1869 1905 1930 1953 1994 2022 2059 2091 2129 2173 2168 2157 2185 2206 2105 1991 1941 1930 1858 1830 1821 1811 1840 1872 1905 1971 1949 1888 1851 1785 1747 1734 1762 1761 1764 1788 1805 1827 1843 1894 1927 1942 1947 1959 1941 1916 1915 1931 1943 1945 1929 1914 1909 1884 1830 1795 1748 1676 1631 1596 1528 1489 1446 1410 1364 1342 1314 1249 1220 1189 1162 1102 1075 1062 1031 1017 1005 992 980 975 965 956 952 953 959 969 975 981 995 1003 1000 998 1001 1002 997 985 967 955 945 928 916 902 880 872 869 855 819 805 797 773 766 767 775 779 780 781 784 784 783 783 
2129 2114 2094 2048 2031 2006 1939 1906 1880 1857 1860 1855 1841 1801 1789 1784 1778 1752 1743 1732 1722 1713 1705 1699 1676 1665 1663 1612 1568 1535 1531 1521 1539 1490 1408 1370 1337 1308 1294 1322 1346 1412 1432 1452 1479 1509 1525 1535 1577 1593 1615 1629 1686 1725 1760 1847 1887 1922 1962 2051 2082 2106 2141 2172 2209 2205 2205 2235 2230 2095 2046 2015 1990 1948 1944 1949 1851 1866 1891 1914 1984 1980 1943 1857 1810 1776 1768 1796 1800 1797 1849 1873 1897 1921 1978 1987 1956 1906 1938 1930 1899 1875 1881 1894 1901 1901 1893 1878 1850 1811 1795 1754 1681 1649 1616 1559 1517 1475 1430 1373 1348 1320 1259 1228 1200 1172 1108 1088 1072 1038 1024 1008 997 981 976 971 959 959 958 962 974 978 982 993 997 1002 1001 1007 1010 1005 997 972 960 949 932 921 908 888 884 879 870 840 827 801 785 774 769 771 783 784 786 783 788 787 786 
2110 2077 2024 1991 1979 1955 1901 1872 1855 1841 1838 1847 1857 1840 1825 1846 1872 1780 1764 1751 1749 1738 1730 1731 1712 1701 1699 1643 1592 1548 1526 1496 1477 1453 1404 1372 1343 1311 1301 1331 1358 1419 1445 1471 1498 1532 1544 1557 1606 1623 1642 1659 1702 1731 1771 1866 1918 1953 1994 2082 2120 2163 2205 2220 2258 2254 2259 2291 2248 2125 2082 2047 2018 1976 1970 1976 1952 1917 1925 1954 2012 2044 2006 1896 1841 1818 1815 1825 1840 1838 1889 1911 1936 1957 1996 1974 1937 1880 1882 1874 1855 1807 1800 1803 1859 1858 1851 1835 1804 1781 1768 1704 1669 1639 1607 1548 1518 1482 1404 1378 1351 1310 1216 1192 1166 1154 1123 1113 1085 1045 1029 1015 1003 982 975 971 963 960 953 957 977 979 983 995 997 998 1001 1007 1016 1012 1001 979 965 954 936 928 917 896 890 886 878 852 846 841 818 800 775 766 780 783 781 782 781 780 782 
2056 2042 1984 1954 1943 1918 1874 1856 1850 1862 1867 1880 1897 1894 1883 1924 1930 1900 1886 1850 1819 1812 1808 1759 1745 1737 1725 1666 1620 1583 1539 1526 1511 1495 1425 1387 1356 1301 1319 1344 1374 1446 1474 1487 1568 1554 1564 1580 1634 1658 1671 1719 1741 1754 1776 1869 1928 1981 2023 2115 2158 2196 2287 2323 2355 2368 2369 2348 2305 2170 2117 2079 2044 1996 1988 1990 1992 1980 1961 1973 2047 2090 2071 1967 1948 1922 1906 1897 1877 1878 1918 1946 1973 1990 1979 1950 1913 1856 1851 1840 1824 1777 1766 1768 1765 1760 1756 1746 1711 1689 1717 1670 1639 1613 1583 1510 1487 1465 1401 1371 1327 1276 1228 1209 1201 1173 1158 1150 1119 1058 1046 1038 996 985 977 972 965 962 958 967 978 982 987 997 999 1001 1000 1004 1012 1016 1003 1000 983 959 941 934 925 903 896 891 886 860 857 854 833 812 783 768 774 782 783 783 781 780 779 
2026 1988 1922 1901 1887 1878 1877 1860 1861 1895 1900 1906 1921 1956 1972 2005 1987 1980 1948 1890 1851 1845 1846 1820 1809 1798 1768 1714 1706 1642 1595 1576 1551 1533 1439 1389 1358 1310 1325 1350 1386 1456 1489 1518 1585 1615 1621 1630 1667 1703 1735 1774 1799 1793 1801 1860 1912 1968 2073 2115 2167 2216 2315 2352 2381 2412 2403 2433 2405 2294 2220 2158 2062 2012 2006 2011 2016 2025 2014 2041 2093 2143 2115 2009 2010 1972 1956 1940 1934 1935 1978 1997 2013 2007 1940 1922 1884 1832 1826 1815 1801 1755 1742 1737 1729 1721 1714 1703 1667 1650 1623 1580 1556 1528 1493 1429 1399 1404 1350 1321 1286 1261 1275 1248 1221 1179 1162 1155 1137 1078 1069 1051 1016 1002 991 981 972 968 965 966 977 985 988 998 1001 1001 1002 1003 1006 1016 1000 1001 991 967 953 943 934 917 908 902 881 868 865 862 843 825 800 766 768 776 781 782 781 781 779 
2007 1967 1901 1887 1879 1888 1910 1928 1941 1973 1974 1980 1980 2040 2041 2071 2053 2024 1968 1918 1880 1887 1888 1855 1839 1825 1786 1756 1739 1712 1641 1614 1584 1542 1444 1402 1368 1316 1331 1359 1394 1470 1503 1535 1612 1642 1656 1663 1696 1723 1757 1851 1885 1873 1889 1925 1954 1953 2063 2121 2171 2223 2313 2349 2378 2435 2451 2460 2449 2383 2326 2245 2105 2065 2050 2051 2038 2040 2051 2074 2118 2162 2166 2059 2065 2027 1990 1978 1962 1952 1997 2012 2015 1956 1921 1875 1836 1786 1785 1780 1741 1730 1722 1714 1704 1686 1671 1646 1630 1610 1580 1535 1514 1492 1460 1395 1368 1353 1334 1339 1343 1359 1326 1266 1233 1187 1171 1162 1149 1096 1083 1068 1029 1013 998 986 975 970 968 964 974 983 990 1001 1007 1005 1004 1003 1004 1012 1001 999 998 973 961 950 939 921 914 907 890 885 882 878 855 844 829 768 767 769 777 780 780 781 778 
1984 1946 1895 1894 1897 1923 1955 1984 1994 2014 2000 1993 2047 2074 2126 2170 2082 2045 2014 1961 1918 1937 1938 1892 1870 1847 1802 1783 1755 1722 1644 1620 1589 1504 1448 1401 1373 1330 1340 1366 1400 1486 1517 1555 1632 1664 1682 1695 1724 1754 1780 1880 1920 1921 1936 1966 2007 2021 2057 2106 2146 2193 2286 2325 2372 2432 2454 2468 2471 2458 2429 2351 2156 2101 2078 2077 2061 2060 2053 2093 2125 2155 2180 2240 2201 2142 2042 2016 1987 1964 1999 2010 2002 1931 1896 1853 1816 1772 1764 1750 1716 1695 1692 1682 1641 1617 1597 1566 1589 1573 1545 1496 1480 1460 1410 1399 1390 1394 1389 1393 1400 1378 1346 1310 1279 1218 1198 1182 1146 1111 1092 1079 1042 1024 1005 988 981 975 971 966 972 981 988 997 1005 1011 1008 1008 1007 1005 1004 1000 999 979 968 957 948 928 919 913 897 892 887 884 864 851 839 781 769 766 767 768 769 775 776 
1953 1928 1926 1941 1964 1966 2000 2041 2060 2046 2012 2014 2063 2091 2147 2196 2118 2086 2063 2018 2039 2047 2016 1951 1930 1905 1839 1796 1763 1726 1657 1629 1594 1502 1450 1404 1371 1346 1351 1367 1437 1476 1514 1554 1638 1679 1714 1766 1756 1777 1805 1903 1943 1963 1995 2014 2049 2079 2088 2120 2157 2244 2286 2327 2362 2405 2418 2428 2437 2453 2462 2404 2234 2152 2114 2098 2090 2077 2071 2081 2121 2149 2170 2245 2258 2202 2112 2069 2032 1993 1964 1971 1980 1907 1872 1831 1796 1753 1739 1717 1681 1666 1666 1659 1621 1598 1593 1565 1549 1535 1525 1511 1509 1506 1443 1448 1441 1454 1451 1446 1439 1394 1361 1330 1303 1238 1214 1194 1157 1138 1120 1103 1065 1049 1032 1006 988 986 980 969 969 978 993 996 1002 1012 1011 1010 1010 1002 1003 1004 999 989 980 967 957 941 923 918 905 897 890 882 871 857 846 794 778 768 766 766 767 767 767 
1943 1931 1959 1974 1996 2065 2114 2161 2178 2086 2065 2035 2076 2103 2155 2209 2161 2139 2122 2082 2098 2080 2038 1982 1959 1928 1840 1797 1759 1723 1652 1623 1580 1498 1451 1406 1371 1361 1369 1378 1421 1457 1495 1529 1606 1646 1691 1762 1785 1811 1847 1934 1960 1993 2068 2061 2087 2117 2138 2148 2186 2263 2299 2333 2356 2391 2400 2410 2421 2425 2426 2427 2390 2290 2199 2141 2131 2087 2102 2092 2109 2137 2204 2256 2288 2238 2126 2081 2039 1970 1943 1948 1929 1861 1827 1793 1760 1712 1712 1692 1657 1643 1639 1638 1611 1608 1603 1577 1575 1565 1563 1559 1574 1584 1562 1571 1570 1566 1526 1513 1473 1417 1383 1350 1325 1261 1235 1211 1168 1152 1138 1113 1073 1055 1041 1016 1004 993 985 975 971 968 996 999 1000 1011 1015 1013 1011 1001 1003 1004 1001 992 986 973 960 949 936 927 914 907 899 885 876 864 849 813 795 775 768 765 766 766 766 
1947 1982 2008 2021 2041 2110 2164 2204 2163 2123 2099 2103 2121 2146 2193 2289 2275 2203 2169 2145 2129 2081 2036 2018 1978 1918 1819 1784 1747 1713 1631 1595 1551 1464 1429 1397 1370 1382 1391 1395 1415 1443 1478 1506 1575 1613 1664 1729 1751 1784 1841 1939 1960 1996 2074 2108 2133 2158 2197 2221 2223 2274 2299 2318 2336 2373 2381 2391 2395 2400 2402 2404 2422 2358 2259 2186 2171 2153 2135 2127 2128 2133 2206 2266 2310 2273 2142 2096 2055 1983 1940 1937 1916 1842 1818 1791 1734 1714 1691 1677 1675 1669 1667 1658 1651 1625 1621 1611 1617 1615 1609 1613 1627 1625 1612 1608 1609 1571 1548 1532 1515 1471 1444 1410 1343 1314 1286 1237 1180 1161 1139 1120 1087 1066 1051 1023 1009 999 989 978 974 971 987 1004 1010 1010 1010 1015 1010 1001 1002 1003 1002 994 992 977 962 957 945 932 918 912 903 885 881 871 860 842 821 798 771 765 767 768 767 
2002 2094 2063 2079 2094 2161 2217 2255 2202 2167 2147 2150 2156 2180 2223 2311 2312 2312 2285 2214 2166 2120 2041 1981 1942 1881 1782 1750 1721 1636 1592 1558 1519 1445 1416 1388 1390 1400 1416 1440 1477 1470 1459 1501 1530 1562 1626 1694 1741 1787 1895 1927 1948 1981 2057 2085 2110 2139 2173 2189 2200 2229 2253 2271 2285 2336 2341 2368 2378 2381 2380 2381 2408 2415 2357 2245 2215 2189 2162 2134 2141 2144 2206 2265 2316 2296 2174 2130 2086 1995 1952 1924 1895 1832 1808 1792 1733 1708 1696 1699 1706 1704 1700 1693 1681 1661 1650 1706 1750 1771 1760 1670 1673 1660 1640 1631 1621 1589 1565 1548 1531 1491 1462 1433 1371 1337 1309 1279 1205 1181 1162 1132 1109 1078 1062 1030 1015 1002 987 982 977 973 979 1001 1011 1010 1008 1012 1008 1003 1001 1002 997 992 990 983 962 961 953 938 923 915 908 885 879 871 863 839 828 810 781 773 766 773 771 
2032 2153 2167 2183 2213 2285 2320 2355 2259 2222 2196 2195 2203 2227 2274 2300 2278 2286 2271 2207 2180 2130 2014 1965 1911 1844 1723 1677 1638 1567 1560 1526 1491 1429 1410 1392 1407 1422 1445 1463 1505 1498 1489 1482 1511 1541 1570 1647 1693 1742 1826 1861 1921 1946 2020 2031 2065 2095 2139 2153 2178 2205 2226 2243 2279 2307 2315 2318 2333 2330 2332 2340 2359 2379 2422 2356 2285 2243 2178 2155 2151 2152 2227 2282 2329 2297 2172 2118 2073 1998 1972 1940 1893 1821 1808 1784 1726 1718 1721 1733 1741 1743 1738 1728 1702 1678 1670 1747 1793 1833 1838 1800 1770 1739 1685 1664 1649 1607 1578 1560 1542 1503 1484 1460 1405 1362 1321 1301 1227 1196 1171 1136 1110 1094 1077 1051 1034 1017 998 990 981 976 973 996 1011 1012 1009 1010 1007 1004 1000 1003 1000 992 986 988 970 963 960 935 932 919 912 887 879 873 857 844 828 812 788 773 767 771 772 
2073 2190 2221 2247 2311 2344 2371 2399 2343 2300 2285 2282 2249 2226 2231 2267 2228 2236 2238 2161 2152 2114 1987 1950 1901 1816 1703 1660 1622 1560 1527 1509 1499 1467 1440 1410 1424 1442 1472 1484 1518 1520 1517 1496 1499 1520 1552 1621 1662 1706 1782 1818 1842 1873 1911 1936 1958 2016 2093 2109 2147 2177 2198 2215 2252 2280 2294 2297 2306 2304 2305 2312 2330 2344 2355 2400 2418 2424 2285 2224 2170 2162 2246 2293 2329 2229 2165 2113 2067 1989 1964 1933 1856 1828 1807 1772 1769 1785 1799 1809 1808 1805 1769 1756 1720 1697 1721 1774 1820 1864 1885 1859 1820 1778 1713 1687 1668 1633 1608 1585 1562 1535 1516 1494 1430 1380 1341 1341 1246 1210 1181 1130 1122 1114 1095 1060 1044 1027 1005 999 991 984 973 983 1000 1014 1009 1006 1006 1003 1000 1004 1006 996 987 984 973 968 961 941 937 930 922 907 892 878 858 849 831 834 794 772 770 771 773 
2116 2223 2265 2307 2368 2391 2412 2419 2373 2332 2297 2215 2203 2180 2187 2171 2138 2139 2130 2080 2070 2080 1949 1878 1837 1732 1688 1648 1619 1560 1545 1541 1522 1493 1452 1416 1443 1482 1512 1529 1559 1564 1568 1529 1514 1518 1543 1592 1629 1674 1736 1769 1789 1835 1871 1896 1912 1959 1988 2035 2071 2115 2145 2168 2201 2256 2274 2278 2276 2274 2276 2284 2295 2308 2320 2357 2383 2413 2321 2253 2212 2191 2253 2300 2310 2215 2160 2104 2057 1983 1954 1925 1861 1826 1791 1767 1807 1829 1846 1849 1846 1839 1831 1788 1755 1740 1746 1790 1833 1877 1907 1901 1865 1783 1750 1717 1689 1646 1622 1601 1564 1543 1520 1498 1447 1417 1408 1330 1276 1232 1188 1145 1139 1128 1086 1068 1051 1035 1013 1005 996 987 975 974 985 1009 1007 1000 1003 1005 1001 1003 1017 1002 992 984 975 972 965 946 938 933 927 913 900 883 862 858 854 849 821 793 780 774 770 
2199 2286 2334 2376 2390 2397 2388 2386 2323 2299 2257 2193 2164 2144 2134 2127 2096 2094 2087 2052 2020 2006 1923 1864 1791 1709 1676 1638 1614 1569 1577 1583 1542 1500 1457 1420 1446 1488 1520 1576 1586 1590 1587 1585 1580 1563 1541 1554 1577 1634 1691 1717 1744 1800 1822 1843 1864 1907 1949 1997 2060 2089 2119 2143 2179 2206 2215 2216 2221 2230 2233 2253 2263 2278 2285 2317 2346 2385 2371 2302 2264 2228 2251 2287 2276 2212 2157 2098 2050 1961 1935 1905 1854 1825 1788 1786 1844 1876 1898 1892 1887 1877 1867 1804 1778 1767 1765 1791 1837 1876 1926 1940 1942 1857 1813 1743 1716 1664 1641 1619 1576 1550 1527 1503 1458 1436 1419 1346 1291 1246 1220 1174 1160 1143 1104 1083 1068 1048 1024 1011 999 981 977 974 976 998 1000 999 1006 1005 1001 1001 1017 1013 1004 987 977 977 970 949 940 935 929 919 906 889 863 860 856 844 830 806 786 775 773 
2226 2318 2359 2395 2360 2330 2299 2302 2246 2201 2176 2105 2122 2100 2084 2082 2056 2042 2036 2016 1974 1961 1891 1848 1780 1688 1663 1630 1607 1633 1634 1622 1560 1508 1464 1426 1448 1490 1533 1598 1611 1614 1606 1609 1605 1594 1560 1554 1562 1583 1626 1647 1660 1707 1727 1790 1817 1874 1921 1957 2038 2066 2094 2120 2155 2176 2182 2190 2199 2212 2219 2208 2204 2221 2260 2270 2285 2349 2406 2372 2332 2227 2238 2255 2230 2183 2145 2094 1996 1955 1925 1894 1847 1817 1806 1833 1899 1934 1965 1936 1930 1920 1897 1831 1809 1800 1789 1798 1834 1869 1930 1953 1972 1895 1856 1814 1772 1716 1685 1655 1594 1561 1535 1512 1472 1451 1428 1351 1311 1276 1242 1184 1166 1152 1110 1088 1077 1070 1044 1030 1016 997 985 976 977 986 990 995 1003 1004 1001 1000 1012 1016 1010 991 979 977 975 956 945 940 940 929 913 892 865 862 858 848 835 820 794 775 773 
2304 2348 2377 2382 2327 2300 2257 2233 2199 2170 2122 2041 2021 1996 1979 1975 1963 1949 1981 1970 1925 1869 1846 1804 1759 1680 1646 1627 1629 1662 1651 1641 1564 1513 1470 1437 1456 1500 1545 1617 1631 1639 1636 1636 1628 1621 1595 1585 1579 1581 1608 1624 1647 1688 1711 1735 1764 1835 1869 1905 1976 2012 2066 2092 2128 2145 2150 2167 2177 2189 2193 2188 2188 2200 2235 2246 2259 2282 2351 2365 2318 2196 2188 2171 2186 2142 2121 2083 1988 1948 1917 1885 1840 1813 1824 1888 1920 1957 1997 2046 2033 2004 1926 1885 1866 1861 1813 1822 1848 1910 1942 1974 1996 1920 1871 1827 1773 1739 1704 1671 1608 1585 1558 1516 1493 1469 1435 1355 1320 1287 1254 1189 1166 1149 1113 1100 1088 1079 1058 1041 1029 1011 996 989 991 988 980 988 995 1002 1002 1000 1010 1016 1016 992 981 976 973 959 949 943 947 934 917 899 872 865 861 853 846 827 805 775 773 
2351 2338 2321 2345 2287 2264 2222 2184 2147 2108 2066 1985 1964 1940 1918 1910 1893 1884 1857 1848 1817 1779 1759 1734 1709 1672 1654 1661 1679 1679 1672 1657 1568 1514 1477 1434 1458 1497 1542 1615 1641 1662 1689 1696 1690 1683 1626 1620 1617 1615 1619 1623 1640 1674 1700 1722 1745 1812 1841 1872 1941 1973 2004 2025 2069 2077 2084 2111 2147 2155 2163 2168 2176 2183 2207 2224 2236 2254 2316 2331 2296 2180 2155 2128 2111 2105 2092 2058 1980 1937 1908 1877 1829 1815 1838 1908 1939 1979 2022 2084 2077 2034 1955 1907 1889 1882 1869 1887 1908 1942 1976 2012 2020 1949 1897 1861 1814 1770 1724 1687 1628 1599 1569 1521 1498 1469 1431 1343 1295 1258 1224 1199 1175 1163 1128 1114 1100 1076 1066 1051 1033 1019 1008 1001 999 992 983 987 990 991 997 1003 1008 1011 1015 996 984 979 973 959 951 944 951 940 922 905 878 868 863 854 849 841 827 780 774 
2324 2305 2283 2271 2221 2181 2154 2059 2033 2045 2012 1955 1921 1907 1885 1871 1856 1848 1816 1798 1783 1761 1748 1731 1719 1711 1720 1729 1730 1726 1711 1667 1570 1519 1484 1436 1454 1488 1535 1608 1636 1662 1703 1728 1731 1721 1694 1692 1696 1691 1688 1685 1694 1680 1696 1706 1752 1781 1804 1836 1901 1934 1970 2010 2035 2042 2053 2084 2097 2107 2126 2131 2140 2150 2167 2200 2215 2256 2283 2300 2281 2165 2131 2125 2139 2106 2068 2039 1975 1929 1893 1866 1825 1849 1879 1946 1958 1999 2041 2115 2115 2067 1973 1929 1912 1900 1902 1919 1938 1971 1994 2029 2057 2022 2002 1969 1874 1833 1755 1723 1645 1613 1581 1528 1504 1470 1427 1335 1296 1275 1239 1214 1189 1169 1135 1125 1113 1091 1080 1070 1046 1026 1023 1012 1002 995 987 986 992 991 994 1003 1007 1010 1013 1000 990 986 971 965 961 954 952 945 929 898 886 875 869 856 851 844 808 784 775 
2283 2266 2247 2215 2191 2155 2103 2036 2001 1973 1943 1904 1893 1887 1900 1870 1861 1852 1815 1809 1799 1771 1763 1760 1759 1744 1757 1765 1756 1751 1727 1675 1583 1545 1521 1452 1447 1477 1524 1591 1624 1654 1707 1736 1748 1757 1732 1725 1729 1731 1728 1720 1730 1766 1768 1777 1766 1753 1754 1802 1863 1902 1932 1981 2006 2016 2027 2061 2071 2084 2107 2110 2116 2125 2146 2156 2172 2209 2230 2245 2256 2165 2148 2168 2179 2138 2088 2045 1975 1930 1890 1832 1839 1866 1898 1969 2001 2033 2105 2141 2147 2100 2010 1966 1941 1921 1933 1957 1969 2009 2030 2055 2086 2080 2049 2002 1916 1873 1828 1785 1705 1669 1632 1554 1501 1462 1414 1347 1335 1302 1256 1236 1209 1181 1136 1126 1117 1093 1084 1072 1060 1047 1045 1035 1014 1008 998 987 990 991 992 1003 1006 1010 1012 1003 993 990 975 970 963 958 956 960 943 911 901 889 874 860 856 846 813 791 777 
2244 2231 2213 2185 2161 2128 2078 2004 1980 1953 1913 1908 1916 1918 1939 1944 1942 1917 1904 1897 1916 1912 1801 1804 1802 1790 1799 1805 1791 1770 1715 1619 1592 1562 1536 1465 1449 1457 1482 1541 1569 1596 1654 1682 1748 1779 1770 1759 1756 1775 1772 1754 1768 1812 1813 1815 1807 1786 1771 1768 1806 1836 1846 1903 1942 1992 2009 2042 2048 2062 2083 2082 2087 2097 2123 2138 2149 2183 2204 2225 2241 2241 2228 2239 2215 2153 2091 2046 1965 1919 1885 1838 1855 1884 1917 1989 2017 2043 2109 2148 2150 2093 2025 2014 2001 2005 2008 2021 2041 2048 2075 2102 2136 2108 2073 2029 1942 1898 1853 1771 1729 1689 1652 1565 1499 1459 1463 1438 1397 1355 1301 1261 1238 1177 1145 1128 1120 1096 1087 1077 1066 1056 1052 1041 1018 1009 1002 998 988 990 991 1003 1007 1009 1012 1006 998 993 984 975 969 963 956 960 949 916 908 894 880 861 855 848 824 810 790 
2185 2174 2148 2100 2081 2054 2048 1978 1960 1944 1931 1928 1952 1965 1988 1997 1993 1996 1988 1969 1989 1976 1942 1925 1893 1885 1881 1878 1817 1765 1705 1631 1607 1584 1547 1484 1463 1454 1486 1514 1536 1560 1612 1636 1691 1771 1798 1799 1798 1836 1808 1792 1826 1859 1848 1843 1840 1819 1802 1782 1790 1807 1821 1871 1907 1931 1965 1997 2011 2021 2036 2037 2064 2075 2102 2117 2127 2164 2184 2206 2228 2271 2275 2264 2210 2148 2087 2030 1937 1897 1874 1863 1887 1916 1935 2010 2041 2064 2127 2165 2151 2093 2039 2036 2039 2064 2070 2067 2081 2129 2165 2194 2130 2088 2048 2020 1944 1904 1862 1786 1752 1708 1664 1563 1515 1520 1491 1468 1436 1392 1325 1301 1282 1230 1181 1147 1128 1100 1091 1082 1066 1063 1058 1051 1023 1014 1007 999 990 990 990 1000 1007 1009 1008 1008 1006 1000 1006 981 974 956 957 960 957 919 915 903 884 862 854 848 831 816 798 
2155 2132 2106 2071 2056 2037 2013 1977 1997 2023 1992 1972 2001 2021 2038 2065 2058 2086 2057 2059 2065 2032 2002 1981 1938 1930 1921 1916 1823 1781 1746 1672 1633 1598 1558 1511 1488 1467 1470 1488 1505 1524 1570 1610 1653 1736 1765 1788 1810 1852 1864 1865 1904 1914 1904 1889 1867 1858 1839 1811 1806 1806 1815 1844 1863 1895 1949 1970 1986 1994 2010 2012 2020 2044 2059 2078 2098 2136 2172 2193 2249 2284 2311 2283 2206 2142 2080 1975 1937 1901 1878 1874 1901 1930 1969 2056 2097 2134 2203 2197 2156 2112 2070 2071 2084 2129 2134 2127 2132 2171 2206 2226 2132 2085 2043 2005 1936 1897 1855 1791 1751 1711 1663 1575 1577 1563 1516 1495 1466 1424 1342 1316 1294 1246 1196 1161 1136 1108 1096 1088 1077 1075 1070 1058 1030 1021 1011 1008 996 990 991 990 998 1007 1005 1007 1011 1003 1008 1004 987 965 958 957 957 928 913 913 876 866 857 850 835 821 806 
2133 2098 2077 2049 2038 2025 2003 2004 2035 2059 2012 1991 2022 2123 2166 2178 2199 2211 2201 2143 2127 2088 2067 2037 1994 1984 1966 1945 1855 1812 1769 1675 1641 1619 1618 1583 1557 1523 1476 1465 1473 1498 1546 1582 1619 1696 1725 1745 1771 1838 1876 1896 1921 1937 1932 1912 1901 1902 1902 1874 1850 1837 1841 1832 1844 1862 1918 1941 1956 1971 1985 1988 1994 2028 2049 2063 2086 2125 2149 2174 2233 2279 2324 2303 2187 2131 2077 1986 1942 1909 1882 1884 1912 1945 2022 2066 2107 2144 2218 2216 2195 2147 2149 2159 2173 2243 2195 2195 2197 2211 2243 2242 2140 2098 2064 2000 1964 1926 1889 1811 1769 1733 1709 1665 1637 1600 1534 1512 1483 1447 1357 1327 1302 1256 1212 1172 1150 1116 1101 1092 1082 1079 1075 1060 1033 1030 1029 1023 1017 1003 990 992 993 998 1006 1008 1010 1003 1007 1010 993 969 957 956 951 936 921 911 886 873 863 855 836 824 807 
2135 2106 2088 2037 2029 2022 2025 2036 2056 2069 2029 2014 2037 2122 2175 2212 2241 2264 2272 2252 2182 2138 2104 2075 2036 2022 1991 1931 1889 1829 1765 1681 1662 1663 1642 1618 1593 1563 1496 1473 1467 1488 1503 1526 1557 1621 1649 1708 1767 1804 1840 1881 1942 1951 1946 1923 1938 1935 1932 1910 1886 1867 1865 1862 1855 1852 1866 1877 1887 1937 1969 1971 1975 2010 2026 2047 2070 2121 2148 2174 2223 2266 2316 2301 2206 2158 2096 1985 1941 1914 1890 1894 1922 1955 2033 2074 2112 2144 2211 2231 2236 2186 2189 2200 2220 2283 2316 2333 2318 2318 2317 2286 2198 2127 2094 2033 1999 1962 1924 1841 1799 1760 1705 1680 1655 1617 1543 1515 1486 1431 1395 1352 1319 1269 1235 1186 1140 1122 1107 1096 1085 1082 1076 1051 1046 1041 1037 1027 1024 1013 994 990 991 989 993 994 996 999 1004 1009 995 973 959 957 956 943 928 918 889 875 864 850 842 837 822 
2158 2130 2119 2105 2097 2102 2125 2132 2094 2091 2062 2033 2049 2118 2174 2227 2265 2276 2253 2214 2132 2090 2053 2034 2010 1990 1964 1896 1843 1793 1768 1746 1701 1711 1687 1654 1624 1591 1524 1494 1481 1475 1492 1515 1539 1594 1627 1661 1715 1746 1787 1823 1909 1960 1948 1951 1975 1977 1974 1952 1928 1908 1896 1891 1877 1877 1881 1882 1894 1900 1901 1910 1921 1958 1984 2027 2088 2119 2147 2172 2213 2251 2310 2303 2208 2155 2089 1981 1942 1916 1896 1909 1938 1970 2054 2088 2123 2145 2213 2253 2284 2233 2231 2239 2255 2302 2339 2382 2388 2383 2357 2304 2219 2184 2133 2032 1992 1951 1924 1865 1821 1779 1713 1688 1664 1635 1563 1534 1498 1441 1410 1368 1330 1276 1240 1206 1157 1137 1121 1105 1090 1083 1075 1066 1058 1049 1044 1031 1029 1021 1002 997 995 993 991 999 997 984 989 1000 995 978 967 961 951 946 935 922 894 879 865 858 851 842 829 
2175 2150 2150 2144 2146 2151 2200 2180 2122 2105 2114 2081 2077 2118 2174 2235 2269 2239 2213 2168 2091 2054 2014 1995 1993 1975 1950 1883 1832 1810 1812 1807 1786 1790 1759 1718 1678 1645 1544 1521 1492 1477 1485 1511 1534 1595 1631 1657 1703 1740 1781 1809 1887 1948 1977 2036 2058 2070 2077 2079 1979 1960 1938 1937 1917 1910 1916 1909 1915 1921 1908 1910 1908 1936 1958 1985 2058 2106 2144 2182 2224 2251 2301 2251 2196 2143 2083 1975 1939 1916 1899 1916 1945 1980 2063 2098 2135 2196 2236 2278 2312 2386 2350 2329 2303 2329 2366 2414 2412 2385 2343 2290 2224 2193 2145 2041 1988 1941 1896 1865 1841 1802 1725 1697 1670 1643 1575 1546 1515 1452 1425 1388 1347 1282 1240 1212 1162 1143 1131 1113 1093 1086 1077 1071 1075 1069 1058 1036 1033 1029 1009 1000 997 996 989 995 998 982 980 994 993 979 969 968 961 949 946 941 906 886 874 865 856 848 835 
2214 2168 2170 2182 2181 2189 2247 2181 2140 2119 2120 2108 2107 2135 2186 2243 2183 2156 2125 2089 2067 2062 2011 1982 1983 1971 1948 1893 1874 1865 1869 1856 1836 1825 1788 1749 1703 1671 1611 1573 1534 1498 1490 1510 1535 1602 1634 1654 1701 1733 1770 1805 1881 1933 1975 2046 2095 2105 2122 2156 2099 2067 2041 2043 2026 2014 1960 1951 1950 1958 1950 1948 1936 1925 1943 1968 2045 2093 2132 2175 2235 2268 2295 2255 2205 2155 2101 1986 1940 1921 1911 1927 1954 1989 2072 2110 2146 2214 2253 2290 2322 2383 2395 2392 2397 2428 2467 2466 2359 2331 2315 2232 2211 2181 2137 2040 1987 1940 1869 1847 1818 1787 1721 1693 1667 1613 1586 1553 1520 1467 1441 1415 1326 1282 1240 1215 1170 1155 1140 1123 1093 1085 1079 1074 1077 1076 1068 1049 1045 1044 1023 1014 1006 1000 994 989 990 983 978 986 987 978 972 973 966 951 946 946 915 903 890 884 877 870 855 
2248 2227 2217 2212 2226 2267 2227 2186 2161 2129 2117 2118 2125 2150 2210 2243 2158 2137 2111 2087 2068 2068 2072 2049 2038 2024 2011 1988 1985 1920 1900 1886 1867 1850 1805 1775 1743 1674 1636 1597 1555 1507 1499 1507 1560 1595 1622 1640 1684 1718 1752 1831 1881 1924 1963 2055 2111 2129 2182 2210 2164 2124 2070 2084 2083 2074 2083 2094 2141 2109 2144 2080 2012 1934 1938 1958 2037 2078 2114 2164 2240 2284 2310 2253 2219 2168 2111 1996 1952 1932 1937 1949 1974 2007 2084 2119 2153 2223 2255 2288 2324 2390 2427 2454 2454 2467 2490 2434 2338 2301 2264 2181 2154 2125 2082 1990 1967 1928 1861 1836 1803 1773 1713 1684 1656 1608 1585 1558 1527 1473 1444 1418 1361 1314 1271 1234 1193 1174 1148 1113 1096 1086 1079 1076 1078 1079 1069 1055 1046 1046 1031 1021 1012 1002 1003 1002 999 993 989 985 976 974 974 977 975 958 947 948 921 906 900 897 890 881 864 
2262 2246 2237 2235 2260 2284 2219 2211 2197 2155 2153 2165 2197 2179 2226 2251 2162 2146 2141 2113 2083 2108 2126 2114 2097 2081 2082 2058 2040 2001 1938 1913 1895 1878 1829 1799 1769 1702 1658 1619 1574 1515 1508 1503 1547 1578 1605 1625 1668 1700 1740 1825 1879 1924 1969 2063 2119 2139 2191 2241 2210 2175 2096 2104 2126 2134 2141 2180 2231 2185 2160 2081 1979 1948 1939 1950 2030 2065 2108 2201 2241 2284 2316 2245 2221 2188 2067 2010 1969 1949 1946 1956 1977 2009 2083 2120 2158 2228 2259 2289 2327 2404 2443 2487 2513 2501 2464 2401 2320 2276 2238 2164 2125 2102 2068 1961 1927 1889 1812 1789 1768 1741 1676 1670 1646 1606 1586 1563 1532 1474 1445 1419 1370 1331 1286 1249 1201 1182 1163 1129 1112 1098 1087 1081 1084 1081 1072 1062 1051 1045 1037 1027 1019 1007 1005 1004 1004 993 993 989 987 977 974 981 982 970 949 946 921 917 912 904 898 891 854 
2270 2258 2264 2279 2293 2241 2227 2212 2189 2200 2193 2203 2229 2284 2295 2306 2226 2194 2179 2166 2126 2167 2194 2202 2171 2137 2107 2051 2024 1996 1938 1916 1900 1884 1835 1814 1792 1728 1681 1634 1593 1531 1515 1510 1533 1559 1584 1609 1661 1694 1735 1833 1896 1940 1972 2047 2090 2119 2175 2218 2251 2243 2148 2125 2160 2202 2203 2254 2279 2227 2155 2074 1976 1945 1939 1944 2018 2059 2111 2193 2231 2298 2330 2228 2194 2182 2075 2026 2016 1978 1954 1962 1980 2037 2072 2111 2154 2229 2260 2291 2363 2400 2443 2482 2509 2467 2407 2337 2293 2254 2215 2140 2101 2077 2003 1946 1898 1868 1798 1774 1756 1730 1682 1658 1638 1588 1565 1541 1514 1472 1444 1421 1367 1338 1297 1255 1207 1188 1170 1134 1117 1100 1089 1082 1086 1080 1074 1068 1055 1046 1041 1033 1026 1014 1009 1006 1003 990 1000 991 992 981 974 983 975 967 954 929 934 939 937 918 909 898 866 
2320 2321 2313 2296 2287 2251 2233 2210 2198 2224 2219 2227 2276 2315 2350 2350 2257 2231 2219 2206 2198 2214 2202 2136 2101 2058 2044 2019 1995 1974 1934 1918 1906 1864 1838 1813 1794 1731 1697 1658 1564 1540 1532 1527 1523 1544 1568 1627 1664 1698 1736 1812 1883 1930 1944 2002 2040 2085 2154 2193 2229 2238 2177 2168 2197 2329 2330 2345 2321 2204 2142 2069 1971 1942 1939 1939 2007 2055 2108 2192 2236 2318 2322 2214 2179 2143 2092 2120 2127 2062 1983 1980 1982 2030 2060 2100 2147 2220 2255 2286 2358 2396 2436 2472 2475 2430 2370 2271 2229 2199 2165 2081 2048 2024 1976 1933 1893 1856 1803 1781 1766 1749 1735 1705 1679 1622 1584 1551 1492 1454 1427 1403 1343 1318 1295 1236 1214 1196 1177 1141 1122 1105 1085 1082 1084 1079 1071 1069 1054 1044 1042 1045 1041 1030 1023 1015 1008 986 998 992 994 986 978 980 972 964 955 933 937 946 948 927 914 907 884 
2319 2342 2318 2293 2282 2277 2270 2263 2254 2257 2259 2237 2304 2354 2374 2345 2268 2242 2229 2201 2188 2176 2155 2085 2060 2024 1967 1956 1938 1922 1903 1884 1903 1853 1829 1800 1776 1718 1694 1662 1577 1552 1544 1536 1527 1543 1563 1615 1645 1678 1727 1808 1834 1858 1928 1964 1995 2046 2133 2177 2216 2234 2201 2191 2232 2361 2400 2363 2254 2190 2128 2081 1962 1939 1939 1957 1997 2045 2093 2195 2257 2341 2317 2195 2166 2142 2132 2172 2149 2083 2006 1993 1987 2013 2041 2085 2126 2196 2242 2275 2349 2394 2432 2464 2438 2386 2329 2237 2198 2173 2141 2065 2027 2001 1951 1936 1927 1917 1895 1905 1823 1833 1806 1769 1726 1641 1604 1575 1514 1477 1449 1420 1371 1339 1309 1250 1224 1204 1188 1154 1129 1113 1089 1082 1081 1080 1069 1069 1060 1046 1041 1045 1045 1043 1032 1025 1005 996 981 983 998 993 981 974 971 964 955 938 944 951 950 935 922 912 891 
2302 2351 2327 2307 2303 2301 2303 2302 2302 2303 2306 2294 2302 2313 2296 2270 2246 2232 2225 2206 2192 2167 2121 2055 2016 1982 1929 1915 1903 1886 1863 1854 1842 1798 1770 1749 1723 1683 1665 1645 1580 1561 1553 1542 1533 1545 1561 1604 1631 1665 1706 1763 1790 1825 1894 1934 1981 2025 2098 2140 2183 2234 2218 2224 2291 2415 2403 2343 2243 2179 2113 2064 1958 1939 1939 1967 2004 2044 2104 2244 2325 2376 2225 2185 2166 2142 2149 2190 2163 2047 2025 2005 1996 2020 2046 2083 2152 2186 2218 2251 2322 2366 2413 2435 2404 2348 2291 2202 2165 2145 2122 2055 2031 2017 1972 1964 1969 1984 1992 2027 1999 1887 1825 1771 1717 1661 1622 1594 1531 1501 1470 1440 1377 1340 1304 1252 1225 1206 1190 1151 1135 1123 1093 1084 1076 1073 1062 1062 1063 1048 1040 1041 1045 1050 1040 1033 1013 1005 990 973 988 975 966 948 947 947 946 954 960 959 955 941 929 917 895 
2269 2351 2350 2328 2326 2336 2356 2355 2343 2367 2343 2322 2315 2303 2284 2253 2250 2243 2231 2231 2217 2162 2061 2030 1988 1949 1900 1886 1879 1854 1843 1840 1837 1823 1801 1777 1752 1705 1679 1651 1590 1575 1563 1549 1534 1546 1563 1600 1622 1649 1680 1746 1782 1814 1899 1941 1987 2041 2137 2160 2186 2258 2294 2315 2345 2451 2393 2338 2224 2175 2098 2050 1968 1940 1939 1981 2013 2061 2138 2288 2350 2365 2238 2177 2168 2159 2177 2202 2199 2071 2044 2021 2008 2034 2054 2083 2144 2177 2207 2236 2310 2355 2402 2411 2346 2287 2244 2169 2137 2110 2082 2056 2049 2039 2013 2009 2028 2054 2078 2074 2004 1868 1811 1758 1690 1677 1662 1636 1552 1519 1488 1418 1378 1340 1302 1248 1225 1206 1189 1154 1143 1129 1095 1082 1074 1069 1061 1056 1056 1044 1041 1039 1036 1043 1046 1044 1021 1009 1000 979 957 965 963 954 947 943 942 958 966 964 967 957 945 931 908 
2249 2343 2375 2394 2404 2433 2443 2446 2381 2378 2357 2341 2323 2300 2283 2264 2256 2244 2226 2224 2187 2139 2065 2035 2004 1965 1883 1869 1864 1860 1848 1846 1844 1850 1838 1817 1758 1726 1689 1658 1593 1578 1565 1542 1537 1546 1563 1602 1634 1670 1738 1756 1788 1820 1907 1962 2004 2106 2160 2196 2210 2260 2300 2347 2387 2444 2388 2329 2223 2179 2118 2059 2003 1958 1955 2013 2042 2087 2158 2307 2335 2355 2250 2178 2176 2164 2188 2212 2230 2127 2078 2041 2024 2041 2053 2081 2138 2173 2199 2233 2316 2352 2393 2395 2322 2275 2247 2176 2145 2112 2093 2088 2082 2094 2115 2149 2179 2115 2102 2057 1986 1863 1814 1765 1731 1736 1704 1661 1571 1537 1499 1416 1381 1345 1318 1261 1236 1217 1187 1159 1145 1134 1098 1081 1072 1064 1059 1054 1051 1046 1046 1043 1036 1036 1037 1041 1035 1023 1006 969 982 987 984 960 954 954 951 956 971 971 974 964 952 940 910 
2258 2331 2354 2371 2380 2405 2425 2442 2392 2368 2347 2333 2314 2292 2284 2266 2245 2213 2201 2168 2130 2097 2065 2046 2029 2004 1904 1887 1880 1863 1862 1863 1877 1891 1881 1861 1780 1736 1699 1662 1598 1581 1568 1541 1545 1551 1566 1606 1641 1678 1755 1799 1839 1878 1964 2006 2046 2098 2150 2185 2203 2252 2298 2348 2405 2425 2373 2315 2208 2169 2120 2043 2026 1996 2000 2068 2100 2132 2239 2275 2320 2345 2244 2186 2174 2172 2190 2219 2249 2187 2114 2060 2033 2043 2053 2073 2133 2172 2209 2254 2313 2332 2381 2387 2323 2287 2266 2203 2181 2149 2108 2105 2106 2152 2196 2216 2205 2103 2056 2003 1950 1870 1860 1803 1802 1791 1735 1674 1597 1558 1516 1440 1408 1370 1336 1280 1252 1231 1192 1171 1153 1137 1110 1093 1084 1067 1059 1055 1051 1048 1048 1046 1040 1042 1036 1031 1031 1031 1012 977 991 1003 999 973 962 960 947 946 970 975 977 971 960 931 912 
2263 2304 2321 2332 2341 2359 2387 2414 2395 2364 2339 2312 2293 2265 2242 2211 2182 2165 2134 2110 2097 2082 2063 2052 2037 2015 1934 1917 1908 1886 1889 1898 1917 1905 1888 1869 1797 1745 1702 1659 1598 1581 1568 1544 1553 1557 1571 1612 1647 1689 1763 1798 1835 1872 1944 1978 2006 2061 2094 2131 2175 2239 2281 2335 2385 2408 2354 2291 2198 2161 2121 2054 2035 2012 2018 2094 2119 2142 2224 2256 2293 2341 2254 2207 2187 2176 2190 2222 2255 2203 2130 2074 2035 2049 2063 2073 2129 2175 2214 2287 2300 2324 2372 2445 2395 2369 2350 2310 2225 2187 2132 2121 2119 2223 2286 2261 2205 2087 2037 1988 1946 1909 1908 1929 1898 1847 1810 1741 1646 1602 1540 1466 1433 1394 1358 1288 1260 1241 1203 1179 1163 1142 1112 1098 1091 1079 1069 1061 1055 1056 1054 1053 1044 1044 1042 1035 1028 1028 1025 991 996 1006 1007 980 969 963 948 936 944 958 959 971 975 944 913 
2199 2228 2234 2245 2251 2315 2348 2378 2391 2362 2337 2293 2278 2256 2237 2206 2179 2160 2143 2116 2092 2080 2070 2058 2050 2027 2015 1953 1943 1932 1938 1945 1930 1914 1894 1874 1783 1730 1684 1622 1595 1581 1565 1550 1559 1570 1602 1627 1654 1694 1763 1787 1817 1848 1914 1947 1985 2052 2082 2123 2174 2244 2300 2333 2346 2342 2295 2237 2173 2145 2118 2059 2043 2023 2041 2108 2131 2147 2213 2247 2292 2347 2266 2229 2205 2191 2200 2229 2262 2180 2124 2081 2037 2054 2071 2081 2127 2173 2216 2277 2292 2333 2382 2493 2459 2431 2399 2341 2291 2231 2149 2143 2141 2232 2294 2258 2199 2082 2036 2002 1974 1979 1983 1991 1931 1893 1830 1724 1672 1620 1585 1505 1462 1427 1348 1310 1269 1246 1202 1187 1167 1131 1116 1105 1096 1083 1078 1069 1061 1059 1057 1059 1050 1046 1041 1043 1032 1029 1025 1003 1005 1005 1008 988 971 965 944 936 932 932 936 943 961 939 923 
2161 2183 2186 2199 2217 2240 2261 2288 2339 2333 2310 2274 2259 2244 2237 2207 2182 2160 2146 2128 2112 2102 2114 2115 2102 2085 2066 2051 2049 2057 2045 2022 1963 1922 1898 1877 1793 1741 1698 1624 1597 1580 1563 1553 1564 1572 1606 1627 1652 1679 1737 1760 1787 1845 1873 1936 1974 2029 2063 2119 2218 2259 2292 2310 2331 2312 2284 2205 2172 2143 2115 2063 2050 2048 2070 2096 2133 2149 2201 2246 2300 2354 2283 2246 2225 2204 2215 2252 2280 2178 2129 2088 2056 2057 2068 2087 2140 2165 2203 2269 2300 2341 2384 2490 2514 2481 2400 2341 2287 2231 2169 2158 2161 2246 2289 2269 2203 2106 2072 2052 2076 2048 2058 2063 1958 1903 1870 1747 1690 1643 1603 1521 1479 1439 1363 1324 1291 1260 1211 1193 1172 1145 1129 1111 1101 1090 1087 1078 1062 1062 1061 1062 1053 1050 1045 1041 1033 1030 1028 1017 1018 1011 1006 1002 973 961 940 939 938 931 925 922 932 926 921 
2133 2142 2145 2157 2182 2200 2218 2246 2301 2305 2309 2312 2257 2224 2213 2207 2194 2188 2157 2152 2155 2161 2178 2207 2200 2145 2128 2111 2105 2107 2077 2042 1969 1934 1903 1872 1788 1749 1698 1620 1596 1578 1563 1556 1565 1576 1607 1629 1658 1683 1740 1763 1788 1832 1855 1880 1908 1979 2011 2053 2142 2227 2258 2290 2312 2287 2269 2214 2177 2143 2113 2064 2060 2069 2068 2092 2127 2151 2210 2274 2343 2388 2345 2273 2249 2222 2234 2269 2225 2187 2143 2121 2092 2088 2095 2116 2144 2174 2203 2261 2287 2333 2413 2454 2495 2482 2363 2315 2269 2225 2178 2181 2179 2255 2308 2280 2223 2127 2094 2092 2105 2135 2162 2119 2008 1948 1893 1764 1707 1666 1623 1532 1484 1441 1376 1340 1304 1266 1215 1197 1182 1155 1139 1124 1110 1109 1111 1102 1078 1064 1062 1064 1058 1054 1047 1039 1036 1032 1029 1021 1021 1017 1002 1004 986 968 961 959 969 958 947 927 921 916 904 
2044 2050 2104 2115 2144 2160 2180 2243 2259 2283 2313 2296 2254 2233 2224 2220 2216 2215 2202 2202 2219 2314 2318 2346 2278 2217 2197 2177 2164 2131 2090 2052 1976 1942 1911 1870 1779 1740 1689 1617 1595 1581 1570 1564 1573 1582 1610 1636 1666 1695 1742 1764 1799 1841 1858 1879 1906 1964 1997 2030 2118 2170 2208 2241 2282 2266 2260 2298 2197 2158 2122 2074 2076 2084 2071 2083 2104 2132 2207 2266 2327 2416 2402 2372 2325 2285 2279 2283 2201 2189 2159 2151 2110 2110 2117 2131 2143 2170 2196 2245 2291 2333 2402 2448 2499 2461 2342 2304 2273 2226 2208 2200 2187 2259 2318 2307 2204 2170 2153 2152 2131 2171 2173 2066 2003 1947 1894 1826 1760 1713 1620 1579 1529 1453 1387 1351 1313 1276 1226 1209 1194 1166 1152 1136 1121 1115 1116 1114 1085 1074 1065 1066 1071 1067 1058 1042 1038 1035 1030 1023 1020 1021 995 998 987 976 971 966 974 980 972 955 948 937 944 
1991 1998 2009 2020 2047 2072 2112 2159 2218 2261 2303 2305 2274 2259 2248 2249 2252 2251 2242 2244 2248 2335 2342 2303 2281 2221 2164 2136 2068 2044 2072 2043 1975 1944 1907 1818 1773 1735 1692 1619 1598 1586 1569 1568 1575 1582 1609 1635 1668 1722 1752 1784 1804 1849 1876 1901 1962 1978 1998 2028 2098 2141 2178 2202 2248 2252 2254 2343 2319 2251 2193 2134 2123 2113 2079 2087 2089 2121 2199 2260 2354 2436 2472 2447 2395 2308 2297 2309 2208 2197 2188 2179 2156 2148 2157 2178 2162 2172 2188 2233 2285 2322 2399 2454 2517 2503 2369 2331 2298 2250 2230 2226 2224 2275 2317 2303 2229 2203 2185 2155 2166 2205 2198 2071 2027 1975 1928 1833 1780 1740 1660 1616 1570 1499 1407 1364 1333 1271 1249 1228 1204 1176 1167 1152 1122 1120 1121 1119 1096 1081 1070 1067 1072 1071 1064 1047 1042 1039 1032 1027 1021 1018 1001 998 996 989 980 976 972 987 986 972 963 972 960 
1952 1959 1975 1986 2018 2044 2079 2145 2189 2237 2285 2364 2358 2337 2334 2293 2302 2311 2297 2303 2298 2331 2287 2243 2213 2174 2132 2082 2028 1993 1974 1954 1936 1906 1881 1818 1778 1737 1693 1621 1604 1593 1577 1577 1580 1582 1612 1635 1667 1720 1744 1775 1812 1877 1916 1955 2056 2071 2081 2058 2096 2119 2148 2193 2215 2230 2250 2345 2359 2279 2187 2164 2143 2128 2085 2097 2089 2148 2202 2256 2335 2410 2455 2478 2393 2340 2315 2313 2219 2204 2206 2209 2205 2177 2177 2191 2201 2208 2219 2232 2259 2296 2402 2463 2521 2538 2408 2367 2333 2276 2258 2248 2244 2303 2334 2300 2224 2196 2189 2209 2219 2182 2178 2107 2068 2025 1973 1869 1823 1769 1688 1643 1587 1506 1413 1377 1341 1281 1258 1236 1215 1187 1178 1169 1144 1136 1126 1120 1107 1091 1080 1065 1069 1071 1070 1050 1044 1042 1036 1032 1023 1019 1011 1002 1002 987 991 995 983 986 992 986 977 980 974 
